0,0,0,0,0,0,4.07,4.043,4.043,4.017,4.017,3.991,3.965,3.94,3.914,3.914,3.89,3.865,3.865,3.817,3.817,3.77,3.77,3.725,3.68,3.636,3.594,3.552,3.492,3.414,3.34,3.269,3.218,3.104,3.042,2.983,0,2.845,2.781,2.684,0,2.529,0,2.382,2.302,2.268,2.268,2.276,2.268,2.276,2.293,2.319,2.328,2.337,2.364,2.373,2.373,2.391,2.391,2.382,2.391,2.391,2.401,2.41,2.41,0,0,0,0,0,0,0,0,0,0,0,0,0,0,0,0,0,0,0,0,0,0,0,0,0,0,0,0,0,0,0,0,0,0,2.941,2.998,3.027,3.073,3.104,3.136,3.136,3.136,3.104,3.073,0,0,0,0,0,0,0,0,0,0,0,0,0,0,0,0,0.908,0.906,0.905,0.904,0.902,0.9,0.898,0.897,0.896,0.896,0,0,0,0,0,0,0,0,0,0,0,0,0,0,0,0,0,0,0,0,0,0,0,0.448,0.448,0.448,0.447,0.447,0.447,0.447,0.447,0.447,0.447,0.447,0.448,0.448,0.449,0.449,0.45,0.45,0.451,0.451,0.452,0.452,0.453,0.454,0.454,0.455,0.456,0.457,0.457,0.458,0.459,0.46,0.46,0.461,0.461,0.461,0.462,0.462,0.463,0.463,0.463,0.464,0.465,0.465,0.466,0.467,0.468,0.469,0.469,0.471,0.471,0.472,0.473,0.474,0.475,0.476,0.476,0.477,0.478,0.478,0.479,0.479,0.479,0.48,0.48,0.48,0.48,0.479,0.479,0.479,0.478,0.478,0.478,0.477,0.477,0.476,0.476,0.476,0.476,0.476,0.477,0.478,0.478,0.479,0.48,0.481,0.482,0.483,0.484,0.485,0.486,0.487,0.488,0.489,0.49,0.491,0.492,0.492,0.492,0.491,0.49,0.49,0.49,0.49,0.49,0.49,0.49,0.492,0.495,0.498,0.501,0.503,0.504,0.504,0.504,0.504,0.504,0.504,0.505,0.504,0.505,0.505,0.506,0.507,0.508,0.509,0.51,0.513,0.516,0.519,0.521,0.523,0.525,0.528,0.53,0.531,0.532,0.533,0.535,0.537,0.539,0.54,0.542,0.543,0.545,0.546,0.547,0.549,0.55,0.55,0.551,0.552,0.552,0.552,0.552,0.552,0.552,0.552,0.552,0.551,0.55,0.549,0.549,0.548,0.548,0.547,0.547,0.546,0.546,0.546,0.546,0.546,0.547,0.547,0.547,0.548,0.548,0.549,0.549,0.55,0.55,0.551,0.551,0.552,0.553,0.553,0.554,0.555,0.556,0.557,0.559,0.561,0.564,0.566,0.57,0.572,0.575,0.579,0.581,0.584,0.585,0.587,0.589,0.59,0.591,0.593,0.595,0.597,0.599,0.6,0.602,0.604,0.606,0.608,0.611,0.614,0.616,0.62,0.625,0.629,0.634,0.639,0.643,0.646,0.648,0.65,0.652,0.654,0.655,0.657,0.658,0.66,0.662,0.664,0.667,0.669,0.672,0.673,0.675,0.678,0.68,0.682,0.684,0.687,0.689,0.692,0.696,0.7,0.706,0.71,0.718,0.726,0.733,0.739,0.747,0.75,0.753,0.755,0.756,0.756,0,0.76,0,3.152,3.168,3.201,3.218,3.218,3.252,3.286,3.322,3.358,3.358,3.377,3.395,3.414,3.414,3.433,3.414,3.414,3.414,3.414,3.395,3.377,3.358,3.34,3.34,3.34,0,0,0,0,0,0,0,0,0,0,0,0,0,0,0,0,0,0,0,0,0.762,0.758,0.752,0.748,0.742,0.737,0.732,0.727,0.724,0.722,0.72,0.719,0.718,0.718,0.719,0.72,0.72,0.721,0.722,0.723,0.724,0.724,0.723,0.723,0.721,0.721,0.722,0.722,0.723,0.725,0.726,0.728,0.732,0.733,0.734,0.734,0.735,0.735,0.737,0.737,0.739,0.739,0.74,0.742,0.744,0.747,0.749,0.75,0.752,0.753,0.755,0.757,0.758,0.759,0.76,0.76,0.762,0.762,0.762,0.764,0.765,0.767,0.768,0.77,0.772,0.774,0.776,0.778,0.779,0.782,0.783,0.784,0.786,0.789,0.792,0.795,0.798,0.802,0.804,0.808,0.811,0.813,0.815,0.816,0.817,0.819,0.822,0.824,0.827,0.829,0.833,0.836,0.84,0.843,0.845,0.848,0.85,0.852,0.854,0.852,0.85,0.848,0,0.837,0.83,0.823,0.816,0.813,0.809,0.805,0.804,0.802,0.801,0.8,0.799,0.799,0.799,0.798,0.797,0.795,0.794,0.793,0.791,0.79,0.789,0.788,0.788,0.788,0.79,0.791,0.793,0.795,0.797,0.798,0.801,0.802,0.803,0,0.803,0,0,0,0,0,0,0,0,0,0,2.002,2.002,2.002,1.995,1.995,1.995,1.995,1.995,1.995,1.995,1.989,1.989,1.989,1.995,2.002,2.008,2.015,2.015,2.022,2.035
0,0,0,0,0,0,4.043,4.017,4.017,3.991,3.991,3.965,3.965,3.965,3.94,3.94,3.914,3.914,3.89,3.865,3.841,3.817,3.794,3.77,3.702,3.658,3.615,3.573,3.512,3.453,3.377,3.322,3.269,3.184,3.136,3.073,3.027,2.983,2.913,2.806,0,0,2.529,2.458,2.373,2.319,2.302,2.31,2.31,2.31,2.328,2.346,2.364,2.382,2.401,2.41,2.42,2.429,2.429,2.429,2.429,2.439,2.448,2.458,2.468,2.458,2.468,2.498,0,0,0,2.582,2.593,0,0,0,0,0,0,0,0,0,0,0,0,0,0,0,0,0,0,0,0,0,0,2.744,0,2.793,2.858,2.926,2.983,3.013,3.058,3.104,3.136,3.136,3.136,3.104,3.058,0,0,0,0,0,0,0,0,0,0,0,0,0,0,0,0,0.902,0.902,0.901,0.898,0.896,0.896,0.893,0.892,0.891,0.892,0.889,0,0,0,0,0,0,0,0,0,0,0,0,0,0,0,0,0,0,0,0,0,0,0,0,0.448,0.448,0.448,0.448,0.448,0.447,0.447,0.448,0.448,0.448,0.449,0.449,0.45,0.45,0.45,0.451,0.452,0.452,0.453,0.454,0.454,0.455,0.456,0.457,0.457,0.458,0.459,0.46,0.46,0.461,0.461,0.462,0.462,0.463,0.463,0.463,0.464,0.465,0.465,0.466,0.466,0.467,0.468,0.469,0.47,0.471,0.471,0.472,0.473,0.474,0.475,0.476,0.476,0.477,0.478,0.479,0.479,0.479,0.48,0.481,0.481,0.481,0.481,0.481,0.48,0.48,0.48,0.479,0.479,0.478,0.478,0.478,0.477,0.477,0.477,0.477,0.477,0.478,0.478,0.479,0.479,0.481,0.482,0.483,0.484,0.485,0.486,0.487,0.488,0.489,0.49,0.49,0.491,0.492,0.492,0.492,0.491,0.491,0.491,0.49,0.49,0.49,0.49,0.49,0.493,0.496,0.5,0.503,0.504,0.505,0.505,0.505,0.505,0.505,0.505,0.505,0.505,0.505,0.506,0.507,0.508,0.509,0.51,0.512,0,0,0.52,0.523,0.525,0.527,0.529,0.531,0.533,0.533,0.535,0.536,0.538,0.54,0.541,0.542,0.544,0.545,0.546,0.548,0.549,0.55,0.551,0.551,0.552,0.552,0.552,0.552,0.552,0.552,0.552,0.552,0.551,0.55,0.55,0.549,0.548,0.548,0.548,0.547,0.547,0.547,0.547,0.547,0.547,0.547,0.548,0.548,0.548,0.549,0.549,0.55,0.55,0.551,0.552,0.552,0.553,0.554,0.555,0.556,0.557,0.558,0.559,0.56,0.563,0.565,0.568,0.571,0.573,0.577,0.579,0.582,0.584,0.586,0.588,0.589,0.59,0.591,0.593,0.595,0.597,0.6,0.601,0.603,0.605,0.607,0.609,0.612,0.615,0.618,0.621,0.625,0.629,0.634,0.638,0.642,0.646,0.648,0.651,0.652,0.654,0.656,0.657,0.659,0.662,0.664,0.667,0.668,0.67,0.672,0.674,0.675,0.678,0.68,0.682,0.684,0.687,0.69,0.694,0.698,0.702,0.709,0.716,0.724,0.732,0.739,0.744,0.751,0.755,0.758,0.76,0.762,0.763,0,0.768,0,3.168,3.201,3.218,3.235,3.235,3.269,3.304,3.34,3.377,3.377,3.395,3.395,3.414,3.414,3.433,3.433,3.414,3.414,3.395,3.395,3.377,3.358,3.358,3.34,3.34,0,0,0,0,0,0,0,0,0,0,0,0,0,0,0,0,0,0,0,0,0.762,0.756,0.75,0.746,0.742,0.736,0.731,0.726,0.724,0.722,0.72,0.719,0.718,0.719,0.72,0.72,0.721,0.722,0.723,0.724,0.724,0.725,0.724,0.723,0.722,0.722,0.722,0.723,0.723,0.724,0.726,0.727,0.731,0.733,0.734,0.735,0.736,0.736,0.737,0.739,0.739,0.739,0.74,0.742,0.744,0.748,0.749,0.75,0.751,0.753,0.756,0.758,0.758,0.759,0.759,0.761,0.762,0.762,0.763,0.764,0.766,0.768,0.769,0.771,0.772,0.774,0.776,0.777,0.779,0.781,0.782,0.783,0.785,0.787,0.79,0.794,0.797,0.8,0.803,0.807,0.81,0.812,0.814,0.816,0.818,0.822,0.824,0.827,0.83,0.834,0.837,0.84,0.843,0.845,0.847,0.849,0.851,0.852,0.852,0.852,0.85,0.847,0,0.836,0.83,0.823,0.815,0.812,0.808,0.804,0.803,0.801,0.8,0.799,0.798,0.798,0.798,0.797,0.796,0.795,0.793,0.792,0.791,0.79,0.788,0.788,0.788,0.789,0.791,0.792,0.795,0.797,0.799,0.802,0.803,0.804,0.807,0,0.807,0,0,0,0,0,0,0,0,0,2.008,2.008,2.008,2.002,2.002,2.002,2.002,2.002,1.995,1.995,1.995,1.995,1.989,1.989,1.995,2.002,2.015,2.015,2.022,2.028,2.035
0,0,0,0,0,0,4.017,3.991,3.991,3.965,3.965,3.965,3.965,3.965,3.965,3.965,3.94,3.94,3.94,3.914,3.89,3.865,3.841,3.794,3.747,3.68,3.658,3.594,3.532,3.472,3.395,3.34,3.286,3.218,3.168,3.104,3.058,3.013,2.955,2.858,2.768,0,0,2.508,2.42,2.364,2.346,2.346,2.346,2.346,2.364,2.382,2.391,2.41,2.439,2.448,2.458,2.468,2.468,2.468,2.478,2.478,2.488,2.508,2.519,2.508,2.529,2.55,2.561,2.582,2.604,2.615,0,0,0,0,0,0,0,0,0,0,0,0,0,0,0,0,2.806,0,0,0,0,2.731,2.744,2.756,2.768,2.793,2.845,2.899,2.955,2.998,3.058,3.088,3.136,3.136,3.136,3.088,3.042,2.998,0,0,0,0,0,0,0,0,0,0,0,0,0,0,0,0,0,0,0.893,0.892,0.891,0.889,0.889,0.888,0.886,0.887,0,0,0,0,0,0,0,0,0,0,0,0,0,0,0,0,0,0,0,0,0,0,0.45,0.449,0.449,0.449,0.448,0.448,0.448,0.448,0.448,0.448,0.449,0.449,0.449,0.45,0.45,0.45,0.451,0.452,0.452,0.453,0.453,0.454,0.455,0.456,0.456,0.457,0.458,0.459,0.46,0.46,0.461,0.462,0.462,0.462,0.463,0.463,0.464,0.464,0.465,0.466,0.466,0.467,0.468,0.468,0.469,0.47,0.471,0.472,0.472,0.473,0.474,0.475,0.476,0.476,0.477,0.478,0.479,0.479,0.48,0.481,0.481,0.481,0.481,0.482,0.482,0.481,0.481,0.481,0.481,0.48,0.48,0.479,0.479,0.478,0.478,0.478,0.477,0.477,0.478,0.478,0.478,0.479,0.48,0.481,0.482,0.484,0.485,0.486,0.487,0.488,0.489,0.489,0.49,0.491,0.491,0.492,0.492,0.492,0.491,0.491,0.491,0.491,0.491,0.49,0.49,0.491,0.494,0.497,0.5,0.503,0.505,0.506,0.506,0.507,0.506,0.506,0.506,0,0,0.505,0.506,0.507,0.507,0.509,0.51,0.512,0.515,0.518,0.521,0.523,0.526,0.528,0.53,0.532,0.533,0.535,0.536,0.537,0.539,0.541,0.542,0.543,0.544,0.546,0.547,0.548,0.549,0.55,0.551,0.551,0.552,0.552,0.553,0.553,0.553,0.553,0.552,0.552,0.552,0.551,0.55,0.55,0.549,0.548,0.548,0.548,0.548,0.547,0.548,0.548,0.548,0.548,0.548,0.548,0.549,0.549,0.55,0.551,0.551,0.552,0.553,0.554,0.554,0.555,0.556,0.557,0.558,0.559,0.56,0.562,0.564,0.566,0.569,0.572,0.574,0.577,0.58,0.583,0.584,0.586,0.588,0.589,0.59,0.592,0.594,0.597,0.598,0.601,0.603,0.604,0.606,0.608,0.611,0.613,0.616,0.618,0.621,0.625,0.629,0.632,0.638,0.642,0.646,0.648,0.651,0.653,0.654,0.657,0.658,0.66,0.662,0.665,0.667,0.669,0.671,0.672,0.675,0.676,0.678,0.68,0.682,0.684,0.687,0.691,0.695,0.7,0.706,0.713,0.72,0.728,0.737,0.743,0.747,0.754,0.758,0.761,0.763,0.765,0.767,0.769,0,0,3.201,3.235,3.252,3.269,3.269,3.304,3.34,3.377,3.395,3.395,3.395,3.414,3.414,3.433,3.433,3.433,3.414,3.414,3.414,3.395,3.377,3.358,3.34,3.34,3.34,0,0,0,0,0,0,0,0,0,0,0,0,0,0,0,0,0,0,0,0,0.759,0.753,0.748,0.744,0.74,0.734,0.73,0.726,0.724,0.722,0.72,0.72,0.719,0.72,0.72,0.721,0.722,0.723,0.724,0.725,0.725,0.725,0.725,0.724,0.723,0.722,0.723,0.723,0.724,0.725,0.726,0.728,0.732,0.734,0.735,0.736,0.736,0.737,0.739,0.74,0.74,0.74,0.74,0.743,0.745,0.748,0.749,0.749,0.752,0.754,0.756,0.758,0.758,0.76,0.761,0.762,0.762,0.763,0.764,0.765,0.767,0.768,0.769,0.771,0.773,0.775,0.776,0.778,0.779,0.78,0.781,0.782,0.784,0.786,0.789,0.792,0.795,0.799,0.802,0.805,0.809,0.812,0.815,0.817,0.819,0.824,0.827,0.83,0.835,0.838,0.841,0.843,0.845,0.847,0.848,0.849,0.851,0.852,0.851,0.851,0.849,0.845,0.84,0.835,0.828,0.821,0.813,0.81,0.805,0.803,0.801,0.8,0.799,0.798,0.797,0.797,0.796,0.795,0.795,0.794,0.793,0.792,0.79,0.789,0.788,0.788,0.789,0.79,0.791,0.793,0.797,0.799,0.801,0.803,0.805,0.807,0.808,0.808,0,0,0,0,0,0,0,2.002,2.008,2.008,2.008,2.008,2.008,2.002,2.002,2.002,2.002,2.002,2.002,2.002,2.002,1.995,1.995,1.995,2.002,2.008,2.022,2.022,2.028,2.035,2.049
0,0,0,0,0,0,3.991,3.991,3.965,3.965,3.965,3.94,3.94,3.965,3.965,3.991,3.965,3.965,3.965,3.94,3.94,3.914,3.865,3.841,3.794,3.725,3.68,3.636,3.573,3.512,3.433,3.358,3.304,3.252,3.184,3.136,3.088,3.027,2.983,2.885,2.806,0,0,2.55,2.468,2.41,2.391,2.382,2.373,2.382,2.401,2.42,2.429,2.448,2.468,2.488,2.488,2.508,2.498,2.508,2.519,2.519,2.529,2.54,2.55,2.54,2.55,2.571,2.593,2.615,2.626,2.638,0,2.66,2.719,0,0,0,0,0,2.819,2.832,2.832,2.845,0,0,0,0,2.793,2.781,0,2.756,2.731,2.744,2.744,2.756,2.768,2.793,2.832,2.885,2.941,2.983,3.027,3.073,3.12,3.12,3.12,3.073,3.013,2.969,2.913,2.872,2.793,0,0,0,0,0,0,0,0,0,0,0,0,0,0,0,0.891,0.888,0.888,0.887,0.886,0.884,0.884,0.883,0,0,0,0,0,0,0,0,0,0,0,0,0,0,0,0,0,0,0,0,0,0,0.45,0.449,0.449,0.449,0.449,0.449,0.448,0.448,0.448,0.449,0.449,0.449,0.45,0.45,0.45,0.451,0.451,0.452,0.453,0.453,0.454,0.455,0.455,0.456,0.457,0.458,0.459,0.459,0.46,0.461,0.462,0.462,0.463,0.463,0.464,0.464,0.465,0.465,0.466,0.466,0.467,0.468,0.469,0.469,0.471,0.471,0.472,0.473,0.474,0.475,0.475,0.476,0.477,0.478,0.478,0.479,0.48,0.48,0.481,0.481,0.482,0.482,0.482,0.483,0.483,0.482,0.482,0.482,0.482,0.481,0.481,0.48,0.479,0.479,0.479,0.478,0.478,0.478,0.478,0.478,0.479,0.479,0.48,0.481,0.482,0.483,0.485,0.486,0.487,0.488,0.489,0.49,0.49,0.491,0.492,0.492,0.492,0.492,0.492,0.491,0.492,0.491,0.491,0.492,0.492,0,0,0,0,0.503,0.505,0.506,0.506,0.507,0.507,0,0,0,0,0,0,0.508,0.509,0.51,0.512,0.514,0.516,0.519,0.522,0.524,0.527,0.529,0.531,0.533,0.535,0.536,0.537,0.538,0.54,0.541,0.542,0.543,0.544,0.546,0.547,0.548,0.549,0.55,0.551,0.552,0.552,0.552,0.553,0.553,0.553,0.553,0.553,0.552,0.552,0.551,0.55,0.55,0.549,0.549,0.549,0.548,0.548,0.548,0.548,0.548,0.548,0.548,0.548,0.549,0.549,0.55,0.55,0.551,0.552,0.553,0.554,0.555,0.555,0.556,0.557,0.558,0.56,0.561,0.562,0.563,0.566,0.568,0.57,0.573,0.575,0.578,0.581,0.583,0.585,0.586,0.588,0.59,0.591,0.593,0.596,0.597,0.6,0.602,0.604,0.606,0.608,0.61,0.612,0.614,0.616,0.619,0.621,0.625,0.629,0.632,0.637,0.642,0.645,0.648,0.651,0.653,0.655,0.657,0.659,0.662,0.664,0.666,0.668,0.67,0.672,0.673,0.675,0.677,0.678,0.681,0.683,0.686,0.689,0.693,0.698,0.702,0.709,0.715,0.723,0.731,0.738,0.743,0.748,0.754,0.758,0.761,0.762,0.764,0.766,0,0,3.218,3.252,3.269,3.286,3.304,3.304,3.34,3.377,3.395,3.414,3.414,3.414,3.414,3.433,3.433,3.433,3.433,3.414,3.414,3.414,3.414,3.377,3.377,3.358,3.34,0,0,0,0,0,0,0,0,0,0,0,0,0,0,0,0,0,0,0,0,0,0.755,0.749,0.745,0.742,0,0.733,0.729,0.726,0.723,0.722,0.72,0.72,0.72,0.72,0.721,0.722,0.723,0.724,0.725,0.726,0.726,0.726,0.726,0.725,0.724,0.724,0.725,0.725,0.726,0.726,0.728,0.73,0.732,0.735,0.736,0.737,0.737,0.737,0.739,0.74,0.74,0.739,0.74,0.742,0.744,0.748,0.749,0.749,0.751,0.754,0.757,0.758,0.759,0.76,0.761,0.762,0.762,0.764,0.765,0.766,0.768,0.769,0.771,0.772,0.773,0.775,0.776,0.777,0.777,0.778,0.779,0.78,0.783,0.786,0.789,0.792,0.795,0.799,0.802,0.805,0.81,0.812,0.815,0.818,0.823,0.827,0.83,0.835,0.838,0.842,0.845,0.847,0.848,0.849,0.849,0.85,0.85,0.851,0.85,0.849,0.847,0.842,0.837,0.832,0.826,0.818,0.812,0.808,0.804,0.802,0.801,0.799,0.798,0.797,0.796,0.796,0.795,0.795,0.794,0.793,0.792,0.791,0.79,0.789,0.788,0.789,0.789,0.79,0.792,0.794,0.798,0.8,0.802,0.805,0.807,0.808,0,0,0,0,0,0,0,0,1.995,2.002,2.002,2.008,2.008,2.008,2.008,2.008,2.002,2.002,2.002,2.002,2.002,2.002,2.008,2.002,2.002,2.002,2.008,2.015,2.028,2.035,2.035,2.042,2.055
0,0,0,0,0,0,3.965,3.965,3.965,3.965,3.94,3.94,3.94,3.965,3.965,3.991,3.991,3.991,3.991,3.965,3.965,3.94,3.914,3.865,3.841,3.77,3.725,3.68,3.615,3.552,3.472,3.395,3.34,3.269,3.218,3.152,3.104,3.042,2.983,2.899,2.819,2.731,0,2.582,2.498,2.448,2.429,2.42,2.41,2.42,2.429,2.448,2.468,2.488,2.508,2.519,2.529,2.529,2.54,2.54,2.54,2.55,2.55,2.571,2.571,2.582,2.604,2.615,2.638,2.649,2.66,2.672,2.695,2.707,2.719,2.731,2.756,2.781,2.793,2.806,2.819,2.832,2.845,2.858,2.845,2.832,2.819,2.806,2.793,2.793,2.768,2.756,2.744,2.744,2.744,2.756,2.768,2.793,2.832,2.872,2.913,2.955,3.013,3.058,3.088,3.104,3.104,3.073,3.013,2.955,2.913,2.858,2.781,0,0,0,0,0,0,0,0,0,0,0,0,0,0,0,0.887,0.884,0.884,0.882,0.88,0.88,0.879,0.879,0,0,0,0,0,0,0,0,0,0,0,0,0,0,0,0,0,0,0,0,0,0,0.45,0.449,0.449,0.449,0.449,0.449,0.449,0.448,0.449,0.449,0.449,0.45,0.45,0.45,0.451,0.451,0.452,0.452,0.453,0.454,0.454,0.455,0.456,0.457,0.458,0.458,0.459,0.46,0.461,0.462,0.462,0.463,0.463,0.464,0.465,0.465,0.465,0.466,0.467,0.467,0.468,0.469,0.47,0.471,0.472,0.472,0.473,0.474,0.475,0.476,0.476,0.477,0.478,0.479,0.479,0.48,0.481,0.481,0.482,0.482,0.483,0.483,0.483,0.483,0.483,0.483,0.483,0.483,0.482,0.482,0.481,0.481,0.48,0.48,0.479,0.479,0.478,0.478,0.478,0.478,0.479,0.479,0.48,0.481,0.482,0.483,0.484,0.485,0.486,0.487,0.489,0.489,0.49,0.491,0.492,0.492,0.492,0.492,0.492,0.492,0.492,0.492,0.492,0.492,0,0,0,0,0,0,0,0.506,0.507,0.507,0,0,0,0,0,0,0,0,0,0,0.515,0.516,0.519,0.521,0,0,0.528,0.53,0.532,0.534,0.536,0.537,0.538,0.539,0.541,0.542,0.542,0.544,0.544,0.546,0.547,0.548,0.549,0.55,0.551,0.552,0.552,0.553,0.553,0.553,0.554,0.553,0.553,0.553,0.552,0.552,0.551,0.55,0.55,0.549,0.549,0.549,0.548,0.548,0.548,0.548,0.548,0.548,0.548,0.549,0.549,0.55,0.551,0.552,0.553,0.554,0.555,0.556,0.557,0.558,0.559,0.56,0.561,0.562,0.564,0.565,0.567,0.57,0.572,0.574,0.577,0.579,0.581,0.583,0.585,0.587,0.589,0.59,0.591,0.593,0.596,0.598,0.6,0.603,0.605,0.607,0.61,0.612,0.613,0.616,0.618,0.62,0.622,0.625,0.628,0.632,0.636,0.64,0.644,0.648,0.65,0.653,0.655,0.658,0.66,0.662,0.664,0.667,0.669,0.671,0.672,0.674,0.675,0.678,0.679,0.681,0.684,0.687,0.691,0.694,0.699,0.705,0.71,0.718,0.725,0.732,0.739,0.743,0.747,0.752,0.755,0.757,0.759,0.76,0,0,0,3.252,3.286,3.304,3.322,3.322,3.322,3.358,3.377,3.414,3.414,3.414,3.414,3.433,3.433,3.433,3.433,3.433,3.414,3.414,3.414,3.414,3.395,3.395,3.377,3.377,3.358,3.358,3.358,0,0,0,0,0,0,0,0,0,0,0,0,0,0,0,0,0,0,0,0,0.741,0,0,0.732,0.727,0.725,0.724,0.721,0.72,0.72,0.72,0.72,0.721,0.722,0.724,0.725,0.726,0.726,0.726,0.726,0.726,0.725,0.725,0.724,0.725,0.726,0.726,0.727,0.728,0.73,0.733,0.736,0.736,0.737,0.737,0.738,0.74,0.74,0.74,0.74,0.74,0.741,0.744,0.747,0.748,0.749,0.751,0.754,0.757,0.758,0.76,0.761,0.762,0.762,0.764,0.765,0.766,0.767,0.768,0.77,0.771,0.773,0.774,0.775,0.776,0.777,0.778,0.779,0.78,0.781,0.783,0.786,0.789,0.792,0.795,0.799,0.803,0.807,0.81,0.813,0.816,0.819,0.824,0.828,0.834,0.837,0.842,0.845,0.848,0.85,0.85,0.85,0.849,0.849,0.849,0.849,0.848,0.845,0.842,0.838,0.833,0.828,0.823,0.816,0.811,0.808,0.804,0.802,0.8,0.799,0.797,0.796,0.795,0.794,0.794,0.793,0.793,0.792,0.791,0.791,0.79,0.789,0.788,0.789,0.79,0.791,0.794,0.796,0.798,0.801,0.804,0.805,0.808,0.808,0,0,0,0,0,0,0,0,1.995,1.995,2.008,2.008,2.008,2.008,2.008,2.008,2.008,2.008,2.008,2.008,2.008,2.008,2.008,2.002,2.008,2.008,2.015,2.022,2.035,2.042,2.042,2.049,2.062
0,0,0,0,0,0,3.965,3.965,3.965,3.94,3.94,3.94,3.94,3.965,3.965,3.991,3.991,3.991,3.991,3.991,3.991,3.965,3.94,3.914,3.865,3.817,3.77,3.725,3.658,3.594,3.512,3.433,3.358,3.304,3.235,3.168,3.104,3.042,2.983,2.899,2.819,2.731,0,2.604,2.529,2.478,2.458,2.448,2.448,2.448,2.468,2.478,2.498,2.519,2.54,2.561,2.561,2.571,2.561,2.571,2.571,2.582,2.582,2.593,2.604,2.604,2.615,2.626,2.638,2.649,2.66,2.684,2.695,2.707,2.719,2.731,2.756,2.781,2.793,2.806,2.819,2.819,2.845,2.845,2.832,2.832,2.819,2.806,2.793,2.781,2.768,2.756,2.744,2.744,2.744,2.756,2.768,2.781,2.819,2.845,2.899,2.941,2.983,3.027,3.073,3.073,3.073,3.042,2.983,2.926,2.885,2.832,2.768,2.707,0,0,0,0,0,0,0,0,0,0,0,0,0,0,0,0.883,0.882,0.88,0.878,0.878,0.878,0.878,0,0,0,0,0,0,0,0,0,0,0,0,0,0,0,0,0,0,0,0,0,0,0.451,0.45,0.45,0.45,0.449,0.449,0.449,0.449,0.449,0.449,0.45,0.45,0.45,0.451,0.451,0.452,0.452,0.453,0.453,0.454,0.455,0.455,0.456,0.457,0.458,0.459,0.46,0.461,0.462,0.462,0.463,0.464,0.464,0.465,0.465,0.466,0.466,0.467,0.467,0.468,0.469,0.47,0.471,0.472,0.472,0.473,0.474,0.475,0.476,0.476,0.477,0.478,0.479,0.479,0.48,0.481,0.481,0.482,0.482,0.483,0.483,0.484,0.484,0.484,0.484,0.484,0.483,0.483,0.483,0.482,0.482,0.482,0.481,0.481,0.48,0.479,0.479,0.479,0.478,0.478,0.479,0.479,0.479,0.48,0.481,0.482,0.484,0.484,0.485,0.487,0.488,0.489,0.49,0.491,0.492,0.492,0.492,0.492,0.492,0.492,0.492,0.492,0.493,0,0,0,0,0,0,0,0.507,0.507,0.508,0.508,0,0,0,0,0,0,0,0,0,0,0.518,0.519,0.521,0.523,0.525,0.527,0.53,0.532,0.533,0.535,0.537,0.538,0.539,0.54,0.541,0.542,0.542,0.543,0.545,0.546,0.547,0.548,0.549,0.55,0.551,0.552,0.552,0.553,0.553,0.554,0.554,0.554,0.554,0.553,0.553,0.552,0.551,0.551,0.55,0.55,0.549,0.549,0.549,0.548,0.548,0.548,0.548,0.548,0.548,0.549,0.55,0.551,0.552,0.553,0.554,0.555,0.556,0.557,0.558,0.559,0.56,0.562,0.563,0.564,0.565,0.567,0.569,0.571,0.573,0.575,0.577,0.579,0.581,0.584,0.585,0.587,0.589,0.59,0.591,0.594,0.597,0.599,0.601,0.604,0.607,0.608,0.611,0.613,0.615,0.617,0.619,0.621,0.623,0.626,0.629,0.632,0.636,0.64,0.644,0.648,0.651,0.653,0.656,0.659,0.661,0.663,0.665,0.667,0.669,0.672,0.673,0.675,0.676,0.678,0.68,0.682,0.685,0.688,0.692,0.697,0.702,0.707,0.713,0.72,0.726,0.732,0.738,0.741,0.744,0.749,0.751,0.753,0.755,0.756,0,0,0,3.286,3.304,3.322,3.34,3.34,3.358,3.377,3.395,3.414,3.414,3.414,3.433,3.414,3.433,3.433,3.433,3.433,3.414,3.414,3.414,3.414,3.414,3.395,3.395,3.377,3.377,3.377,3.358,0,0,0,0,0,0,0,0,0,0,0,0,0,0,0,0,0,0,0,0,0.739,0,0,0.73,0.726,0.725,0.723,0.721,0.72,0.72,0.72,0.721,0.722,0.723,0.724,0.725,0.726,0.726,0.726,0.726,0.726,0.726,0.726,0.726,0.726,0.726,0.727,0.727,0.729,0.732,0.734,0.736,0.738,0.738,0.738,0.74,0.74,0.74,0.74,0.74,0.74,0.742,0.744,0.746,0.748,0.749,0.751,0.754,0.757,0.759,0.761,0.762,0.762,0.764,0.765,0.766,0.767,0.768,0.769,0.77,0.772,0.773,0.775,0.777,0.777,0.778,0.779,0.78,0.78,0.781,0.784,0.786,0.789,0.792,0.795,0.799,0.802,0.807,0.81,0.813,0.817,0.822,0.826,0.83,0.836,0.841,0.845,0.849,0.85,0.852,0.851,0.851,0.85,0.85,0.849,0.848,0.845,0.843,0.84,0.835,0.83,0.826,0.821,0.816,0.811,0.809,0.804,0.802,0.8,0.799,0.797,0.796,0.794,0.793,0.793,0.792,0.792,0.791,0.791,0.79,0.789,0.789,0.789,0.79,0.791,0.793,0.795,0.797,0.8,0.802,0.804,0.808,0.809,0,0,0,0,0,0,0,0,1.982,1.989,1.995,2.002,2.008,2.008,2.008,2.008,2.008,2.008,2.008,2.008,2.008,2.008,2.008,2.008,2.008,2.008,2.008,2.015,2.028,2.042,2.049,2.049,2.055,2.069
0,0,0,0,0,0,0,3.965,3.965,3.94,3.94,3.94,3.94,3.94,3.965,3.991,3.991,3.991,3.991,3.991,3.991,3.991,3.991,3.94,3.914,3.865,3.841,3.77,3.702,3.636,3.552,3.472,3.377,3.322,3.252,3.168,3.104,3.027,2.969,2.885,2.819,2.731,2.672,2.615,2.561,2.508,2.488,2.478,2.468,2.488,2.498,2.519,2.529,2.55,2.571,2.582,2.582,2.593,2.593,2.593,2.604,2.604,2.604,2.615,2.615,2.626,2.626,2.638,2.649,2.66,2.672,2.684,2.695,2.707,2.719,2.744,2.756,2.781,2.793,2.806,2.806,2.819,2.832,2.845,2.832,2.832,2.819,2.806,2.793,2.781,2.756,2.744,2.744,2.744,2.744,2.756,2.768,2.781,2.806,2.845,2.885,2.926,2.969,3.013,3.042,3.058,3.042,2.998,2.955,2.913,2.858,2.806,2.744,2.695,2.638,0,0,0,0,0,0,0,0,0,0,0,0,0,0,0,0.878,0.877,0.874,0.874,0.873,0,0,0,0,0,0,0,0,0,0,0,0,0,0,0,0,0,0,0,0,0,0,0,0.451,0.45,0.45,0.449,0.449,0.449,0.449,0.449,0.449,0.45,0.45,0.45,0.451,0.451,0.452,0.452,0.452,0.453,0.453,0.454,0.455,0.456,0.456,0.457,0.458,0.459,0.46,0.461,0.462,0.463,0.463,0.464,0.465,0.465,0.466,0.466,0.467,0.467,0.468,0.469,0.47,0.471,0.472,0.472,0.473,0.474,0.475,0.476,0.477,0.478,0.478,0.479,0.48,0.481,0.481,0.482,0.482,0.483,0.483,0.484,0.484,0.484,0.484,0.484,0.484,0.484,0.484,0.484,0.484,0.483,0.483,0.482,0.481,0.481,0.481,0.48,0.479,0.479,0.479,0.478,0.478,0.479,0.479,0.48,0.481,0.481,0.482,0.484,0.485,0.486,0.487,0.488,0.49,0.491,0.491,0.492,0.492,0.493,0.493,0.493,0.494,0.494,0.494,0.495,0.496,0.497,0,0,0,0,0.507,0.508,0.509,0.51,0.511,0.512,0.513,0.514,0.516,0.516,0,0,0.518,0.519,0.52,0,0,0.524,0.526,0.528,0.531,0.533,0.534,0.536,0.538,0.539,0.54,0.541,0.541,0.542,0.543,0.543,0.545,0.546,0.547,0.548,0.549,0.55,0.551,0.552,0.553,0.553,0.554,0.554,0.554,0.554,0.554,0.554,0.553,0.553,0.552,0.551,0.55,0.55,0.549,0.549,0.548,0.548,0.548,0.548,0.548,0.548,0.549,0.549,0.55,0.551,0.552,0.553,0.554,0.556,0.557,0.558,0.559,0.561,0.562,0.563,0.564,0.566,0.567,0.569,0.57,0.572,0.574,0.577,0.578,0.58,0.583,0.584,0.586,0.588,0.589,0.59,0.591,0.594,0.597,0.6,0.603,0.606,0.608,0.611,0.613,0.615,0.617,0.619,0.621,0.623,0.625,0.627,0.63,0.633,0.637,0.641,0.644,0.648,0.651,0.654,0.656,0.659,0.661,0.663,0.665,0.668,0.669,0.672,0.673,0.675,0.676,0.678,0.681,0.683,0.686,0.69,0.694,0.699,0.704,0.71,0.715,0.722,0.727,0.732,0.737,0.74,0.741,0.746,0.747,0.748,0.749,0.75,0,0,0,3.322,3.322,3.34,3.358,3.358,3.377,3.395,3.414,3.414,3.414,3.414,3.414,3.414,3.414,3.414,3.414,3.414,3.414,3.414,3.414,3.414,3.414,3.395,3.395,3.395,3.395,0,0,0,0,0,0,0,0,0,0,0,0,0,0,0,0,0,0,0,0,0,0.739,0,0.733,0.732,0.729,0.726,0.724,0.722,0.722,0.721,0.721,0.721,0.721,0.722,0.724,0.724,0.725,0.726,0.726,0.726,0.726,0.726,0.726,0.726,0.726,0.726,0.727,0.727,0.729,0.731,0.732,0.736,0.737,0.739,0.739,0.74,0.741,0.742,0.741,0.741,0.74,0.741,0.742,0.744,0.747,0.748,0.749,0.752,0.756,0.758,0.76,0.762,0.762,0.764,0.765,0.766,0.767,0.768,0.769,0.771,0.772,0.774,0.775,0.776,0.778,0.779,0.78,0.781,0.782,0.783,0.784,0.786,0.788,0.79,0.793,0.796,0.8,0.803,0.807,0.81,0.813,0.818,0.822,0.826,0.832,0.837,0.842,0.848,0.851,0.854,0.855,0.855,0.854,0.851,0.851,0.85,0.848,0.845,0.842,0.837,0.834,0.828,0.825,0.821,0.815,0.812,0.81,0.805,0.803,0.802,0.799,0.797,0.796,0.795,0.793,0.792,0.793,0.792,0.792,0.791,0.791,0.791,0.79,0.791,0.792,0.793,0.795,0.797,0.799,0.802,0.804,0.808,0.809,0.811,0,0,0,0,0,0,1.963,1.976,1.976,1.982,1.989,1.995,2.002,2.002,2.008,2.008,2.008,2.008,2.008,2.008,2.008,2.015,2.015,2.015,2.015,2.015,2.015,2.028,2.035,2.049,2.055,2.055,2.062,2.076
0,0,0,0,0,0,3.965,3.965,3.94,3.94,3.94,3.914,3.914,3.94,3.965,3.991,3.991,3.991,3.991,3.991,3.991,3.991,3.991,3.965,3.94,3.89,3.865,3.794,3.747,3.658,3.573,3.492,3.414,3.34,3.252,3.184,3.104,3.027,2.969,2.885,2.806,2.731,2.672,2.615,2.571,2.54,2.519,2.508,2.508,2.508,2.519,2.55,2.561,2.571,2.593,2.593,2.604,2.615,2.615,2.615,2.615,2.615,2.626,2.626,2.638,2.638,2.638,2.649,2.66,2.66,2.672,2.684,2.695,2.707,2.719,2.744,2.756,2.781,2.793,2.819,2.806,2.819,2.832,2.845,2.832,2.832,2.819,2.806,2.793,2.793,2.768,2.756,2.756,2.744,2.756,2.756,2.768,2.781,2.806,2.832,2.885,2.913,2.941,2.983,3.027,3.027,3.013,2.983,2.926,2.885,2.832,2.793,2.731,2.672,2.615,2.582,0,0,0,0,0,0,0,0,0,0,0,0,0,0,0,0,0,0,0,0,0,0,0,0,0,0,0,0,0,0,0,0,0,0,0,0,0,0,0,0,0,0,0,0.451,0.45,0.45,0.45,0.45,0.45,0.45,0.45,0.45,0.451,0.451,0.451,0.452,0.452,0.452,0.453,0.453,0.454,0.454,0.455,0.456,0.456,0.457,0.458,0.459,0.46,0.461,0.462,0.463,0.464,0.465,0.465,0.465,0.466,0.466,0.467,0.468,0.469,0.469,0.471,0.471,0.472,0.473,0.474,0.475,0.476,0.477,0.478,0.479,0.479,0.48,0.481,0.482,0.482,0.483,0.483,0.484,0.484,0.484,0.485,0.485,0.485,0.485,0.485,0.485,0.484,0.484,0.484,0.484,0.483,0.483,0.482,0.482,0.481,0.48,0.479,0.479,0.479,0.478,0.478,0.479,0.479,0.479,0.48,0.481,0.482,0.483,0.484,0.485,0.486,0.488,0.489,0.49,0.491,0.492,0.493,0.493,0.494,0.494,0.494,0.495,0.496,0.496,0.498,0.499,0.5,0.503,0.505,0.507,0.508,0.509,0.509,0.51,0.512,0.513,0.515,0.516,0.517,0.518,0,0,0.52,0.521,0,0,0.525,0.526,0.528,0.531,0.533,0.534,0.536,0.538,0.538,0.54,0.541,0.541,0.542,0.542,0.543,0.544,0.545,0.546,0.547,0.548,0.549,0.55,0.552,0.552,0.553,0.554,0.554,0.554,0.555,0.554,0.554,0.554,0.554,0.553,0.552,0.551,0.55,0.549,0.549,0.548,0.548,0.548,0.548,0.548,0.548,0.548,0.549,0.55,0.551,0.552,0.553,0.554,0.555,0.557,0.558,0.56,0.561,0.562,0.563,0.565,0.566,0.567,0.569,0.57,0.572,0.573,0.575,0.577,0.579,0.581,0.583,0.585,0.586,0.588,0.589,0.591,0.591,0.595,0.598,0.601,0.605,0.608,0.61,0.613,0.616,0.618,0.62,0.621,0.623,0.625,0.626,0.629,0.632,0.634,0.638,0.641,0.644,0.648,0.65,0.653,0.655,0.658,0.661,0.663,0.665,0.667,0.669,0.671,0.672,0.674,0.676,0.678,0.681,0.684,0.687,0.691,0.696,0.702,0.706,0.712,0.717,0.723,0.728,0.732,0.735,0.737,0.739,0.741,0.742,0.743,0.744,0.744,0,0,3.34,3.34,3.358,3.377,3.377,3.377,3.395,3.414,3.414,3.433,3.414,3.414,3.414,3.414,3.414,3.414,3.414,3.414,3.414,3.414,3.414,3.433,3.414,3.414,3.414,3.414,0,0,0,0,0,0,0,0,0,0,0,0,0,0,0,0,0,0,0,0,0,0,0.734,0.732,0.73,0.729,0.727,0.725,0.724,0.723,0.722,0.721,0.721,0.721,0.721,0.722,0.723,0.724,0.725,0.726,0.726,0.726,0.726,0.726,0.726,0.726,0.726,0.726,0.727,0.729,0.73,0.732,0.733,0.736,0.739,0.74,0.74,0.741,0.743,0.744,0.743,0.743,0.742,0.742,0.744,0.746,0.748,0.749,0.75,0.753,0.756,0.759,0.762,0.762,0.764,0.765,0.766,0.768,0.769,0.769,0.77,0.772,0.773,0.775,0.777,0.778,0.78,0.781,0.782,0.783,0.784,0.784,0.785,0.787,0.79,0.792,0.795,0.797,0.801,0.803,0.807,0.81,0.813,0.817,0.823,0.827,0.834,0.84,0.847,0.851,0.856,0.857,0.858,0.858,0.857,0.856,0.854,0.852,0.85,0.845,0.843,0.838,0.834,0.828,0.825,0.821,0.817,0.813,0.81,0.807,0.804,0.803,0.8,0.798,0.796,0.795,0.794,0.793,0.793,0.793,0.793,0.793,0.792,0.791,0.791,0.792,0.793,0.794,0.796,0.798,0.801,0.804,0.807,0.809,0.812,0.813,0,0,0,0,0,0,1.957,1.97,1.976,1.976,1.982,1.995,1.995,2.002,2.002,2.002,2.002,2.002,2.008,2.008,2.008,2.015,2.022,2.022,2.022,2.022,2.028,2.035,2.049,2.055,2.062,2.069,2.076,2.09
0,0,0,0,0,0,3.965,3.965,3.94,3.94,3.94,3.914,3.914,3.94,3.965,3.965,3.965,3.965,3.991,3.991,3.991,3.965,3.965,3.965,3.94,3.914,3.865,3.817,3.747,3.68,3.594,3.512,3.433,3.34,3.269,3.184,3.104,3.027,2.955,2.872,2.793,2.731,2.672,2.626,2.593,2.561,2.54,2.54,2.529,2.54,2.55,2.571,2.582,2.593,2.604,2.604,2.604,2.615,2.626,2.626,2.626,2.626,2.638,2.638,2.638,2.649,2.649,2.66,2.66,2.672,2.684,2.695,2.707,2.719,2.731,2.744,2.756,2.781,2.793,2.819,2.806,2.819,2.832,2.845,2.845,2.845,2.832,2.819,2.806,2.793,2.793,2.768,2.756,2.756,2.756,2.768,2.768,2.793,2.806,2.832,2.872,2.899,2.926,2.955,2.998,3.013,2.998,2.969,2.913,2.885,2.832,0,2.731,0,0,0,0,0,0,0,0,0,0,0,0,0,0,0,0,0,0,0,0,0,0,0,0,0,0,0,0,0,0,0,0,0,0,0,0,0,0,0,0,0,0,0,0,0,0.452,0.451,0.451,0.45,0.45,0.45,0.45,0.45,0.45,0.451,0.451,0.451,0.452,0.452,0.452,0.453,0.453,0.453,0.454,0.455,0.455,0.456,0.457,0.457,0.458,0.459,0.46,0.461,0.462,0.463,0.464,0.465,0.465,0.466,0.466,0.467,0.467,0.468,0.469,0.47,0.471,0.472,0.473,0.474,0.475,0.476,0.476,0.478,0.479,0.479,0.481,0.481,0.482,0.483,0.484,0.484,0.484,0.485,0.485,0.485,0.485,0.486,0.486,0.486,0.485,0.485,0.485,0.485,0.484,0.484,0.484,0.483,0.482,0.482,0.481,0.481,0.48,0.479,0.479,0.479,0.478,0.478,0.479,0.479,0.479,0.48,0.481,0.482,0.483,0.484,0.486,0.487,0.489,0.49,0.491,0.492,0.493,0.494,0.495,0.496,0.496,0.497,0.497,0.498,0.5,0.501,0.502,0.504,0.505,0.507,0.508,0.509,0.51,0.511,0.513,0.514,0.516,0.517,0.518,0.519,0.519,0.521,0.523,0.523,0.525,0.526,0.528,0.528,0.53,0.533,0.534,0.535,0.537,0.538,0.539,0.54,0.541,0.541,0.542,0.543,0.543,0.544,0.545,0.546,0.547,0.548,0.549,0.551,0.552,0.553,0.553,0.554,0.554,0.555,0.555,0.555,0.555,0.554,0.554,0.553,0.552,0.551,0.55,0.549,0.549,0.548,0.547,0.547,0.547,0.547,0.548,0.548,0.549,0.549,0.551,0.552,0.553,0.554,0.556,0.557,0.559,0.561,0.562,0.563,0.565,0.566,0.567,0.569,0.57,0.571,0.573,0.574,0.577,0.578,0.58,0.582,0.584,0.585,0.587,0.589,0.59,0.591,0.593,0.596,0.6,0.603,0.607,0.61,0.613,0.616,0.618,0.62,0.622,0.623,0.625,0.626,0.628,0.63,0.633,0.636,0.638,0.641,0.644,0.648,0.65,0.652,0.655,0.658,0.66,0.662,0.664,0.667,0.669,0.671,0.672,0.674,0.677,0.679,0.681,0.684,0.688,0.693,0.698,0.703,0.709,0.714,0.718,0.723,0.727,0.731,0.733,0.734,0.735,0.738,0.739,0.739,0.739,0.74,0,0,3.358,3.377,3.377,3.377,3.395,3.395,3.414,3.433,3.433,3.414,3.414,3.414,3.414,3.414,3.395,3.395,3.395,3.414,3.414,3.414,3.414,3.433,3.433,3.433,3.433,3.433,0,0,0,0,0,0,0,0,0,0,0,0,0,0,0,0,0,0,0,0,0,0,0.734,0.732,0.732,0.728,0.726,0.725,0.724,0.723,0.723,0.722,0.721,0.721,0.721,0.723,0.723,0.724,0.725,0.725,0.726,0.726,0.726,0.726,0.726,0.726,0.726,0.727,0.728,0.729,0.731,0.732,0.734,0.737,0.739,0.74,0.741,0.742,0.745,0.745,0.745,0.744,0.744,0.744,0.745,0.747,0.749,0.749,0.751,0.754,0.758,0.761,0.762,0.763,0.765,0.766,0.767,0.768,0.769,0.77,0.771,0.773,0.775,0.777,0.778,0.779,0.782,0.782,0.784,0.785,0.785,0.786,0.787,0.789,0.791,0.793,0.796,0.799,0.802,0.807,0.81,0.813,0.815,0.821,0.825,0.83,0.836,0.842,0.849,0.855,0.861,0.862,0.864,0.863,0.862,0.86,0.858,0.856,0.852,0.849,0.844,0.84,0.834,0.829,0.825,0.822,0.817,0.814,0.811,0.808,0.805,0.803,0.802,0.799,0.798,0.797,0.795,0.795,0.795,0.795,0.794,0.795,0.794,0.793,0.793,0.794,0.795,0.796,0.798,0.8,0.802,0.805,0.808,0.81,0.813,0.814,0,0,0,0,0,0,1.963,1.963,1.97,1.976,1.982,1.989,1.995,1.995,2.002,2.002,2.002,2.002,2.002,2.008,2.008,2.015,2.022,2.022,2.028,2.028,2.035,2.042,2.055,2.069,2.069,2.076,2.083,2.097
0,0,0,0,0,0,0,3.965,3.94,3.94,3.94,3.914,3.914,3.94,3.965,3.965,3.965,3.965,3.965,3.965,3.965,3.965,3.965,3.94,3.94,3.914,3.89,3.841,3.77,3.702,3.615,3.532,3.453,3.358,3.269,3.184,3.104,3.027,2.941,2.872,2.793,2.731,2.672,2.638,2.593,2.571,2.55,2.54,2.54,2.55,2.561,2.571,2.582,2.593,2.604,2.604,2.615,2.615,2.615,2.626,2.626,2.638,2.638,2.638,2.649,2.649,2.649,2.66,2.672,2.672,2.684,2.695,2.707,2.719,2.731,2.744,2.768,2.793,2.806,2.819,2.819,2.845,2.845,2.845,2.858,2.858,2.845,2.819,2.806,2.793,2.781,2.768,2.768,2.768,2.768,2.768,2.781,2.793,2.806,2.832,2.872,2.885,2.913,2.941,2.983,2.998,2.983,2.955,2.913,2.885,2.832,0,2.744,2.672,2.638,2.593,2.561,0,0,0,0,0,0,0,0,0,0,0,0,0,0,0,0,0,0,0,0,0,0,0,0,0,0,0,0,0,0,0,0,0,0,0,0,0.456,0.455,0.454,0.454,0.453,0.452,0.451,0.451,0.451,0.451,0.45,0.45,0.451,0.451,0.451,0.451,0.452,0.452,0.452,0.453,0.453,0.453,0.454,0.454,0.455,0.455,0.456,0.457,0.457,0.458,0.459,0.46,0.461,0.462,0.463,0.464,0.465,0.465,0.466,0.466,0.467,0.468,0.468,0.469,0.47,0.471,0.472,0.473,0.475,0.475,0.476,0.478,0.478,0.479,0.481,0.482,0.482,0.483,0.484,0.485,0.485,0.485,0.486,0.487,0.487,0.487,0.487,0.487,0.487,0.487,0.487,0.486,0.486,0.485,0.485,0.484,0.484,0.483,0.482,0.482,0.481,0.481,0.48,0.479,0.479,0.479,0.479,0.479,0.479,0.479,0.48,0.481,0.481,0.482,0.484,0.485,0.487,0.488,0.49,0.491,0.492,0.493,0.495,0.496,0.497,0.497,0.498,0.499,0.5,0.501,0.503,0.503,0.505,0.506,0.507,0.509,0.51,0.51,0.511,0.513,0.515,0.516,0.517,0.518,0.519,0.52,0.522,0.523,0.525,0.526,0.528,0.528,0.53,0.531,0.533,0.535,0.536,0.538,0.539,0.54,0.541,0.541,0.542,0.543,0.543,0.544,0.544,0.545,0.546,0.548,0.549,0.55,0.551,0.552,0.553,0.554,0.554,0.555,0.555,0.555,0.555,0.555,0.554,0.554,0.553,0.552,0.551,0.55,0.549,0.548,0.548,0.547,0.547,0.546,0.547,0.547,0.548,0.549,0.55,0.551,0.552,0.554,0.555,0.557,0.559,0.56,0.562,0.563,0.564,0.566,0.567,0.569,0.57,0.571,0.572,0.574,0.576,0.578,0.579,0.581,0.583,0.585,0.587,0.588,0.59,0.591,0.592,0.594,0.598,0.602,0.605,0.608,0.613,0.615,0.618,0.621,0.623,0.624,0.626,0.627,0.628,0.63,0.632,0.634,0.636,0.639,0.642,0.644,0.648,0.65,0.653,0.655,0.657,0.66,0.662,0.664,0.667,0.669,0.671,0.672,0.675,0.677,0.679,0.682,0.686,0.689,0.694,0.699,0.706,0.71,0.715,0.72,0.723,0.726,0.729,0.731,0.731,0.732,0.734,0.734,0.734,0.734,0.735,0,0,3.395,3.395,3.414,3.414,3.414,3.414,3.414,3.433,3.414,3.414,3.414,3.414,3.395,3.395,3.395,3.395,3.395,3.395,3.414,3.414,3.433,3.433,3.433,3.433,3.453,3.453,0,0,0,0,0,0,0,0,0,0,0,0,0,0,0,0,0,0,0,0,0,0,0.74,0.737,0.734,0.729,0.727,0.726,0.726,0.725,0.723,0.722,0.721,0.722,0.722,0.723,0.724,0.724,0.725,0.725,0.726,0.726,0.726,0.726,0.726,0.727,0.726,0.727,0.729,0.73,0.732,0.732,0.735,0.738,0.74,0.742,0.742,0.744,0.746,0.747,0.747,0.747,0.746,0.747,0.748,0.749,0.75,0.75,0.753,0.756,0.76,0.762,0.763,0.765,0.767,0.768,0.769,0.77,0.771,0.772,0.773,0.774,0.776,0.778,0.779,0.78,0.782,0.784,0.784,0.786,0.787,0.788,0.79,0.792,0.795,0.798,0.801,0.804,0.809,0.812,0.816,0.818,0.822,0.826,0.83,0.835,0.841,0.847,0.854,0.86,0.866,0.868,0.869,0.868,0.866,0.864,0.862,0.858,0.855,0.85,0.844,0.838,0.834,0.829,0.825,0.822,0.817,0.814,0.812,0.809,0.807,0.805,0.804,0.801,0.8,0.799,0.798,0.797,0.796,0.796,0.797,0.796,0.796,0.795,0.795,0.795,0.796,0.798,0.799,0.801,0.803,0.805,0.809,0.812,0.813,0,0,0,0,0,0,1.963,1.963,1.97,1.97,1.976,1.982,1.989,1.989,1.995,1.995,1.995,1.995,1.995,2.002,2.002,2.008,2.015,2.015,2.022,2.028,2.035,2.042,2.049,2.062,2.069,2.076,2.083,2.09,2.105
0,0,0,0,0,0,0,0,3.94,3.94,3.94,3.94,3.914,3.94,3.965,3.965,3.965,3.965,3.965,3.965,3.965,3.965,3.965,3.94,3.94,3.914,3.89,3.841,3.77,3.702,3.636,3.532,3.453,3.377,3.269,3.184,3.104,3.027,2.941,2.872,2.793,2.731,2.672,2.626,2.593,2.571,2.55,2.55,2.54,2.55,2.561,2.571,2.582,2.593,2.604,2.604,2.615,2.615,2.626,2.626,2.638,2.638,2.638,2.649,2.649,2.66,2.66,2.66,2.672,2.672,2.684,2.695,2.707,2.719,2.731,2.756,2.768,2.793,2.819,2.832,2.832,2.845,2.858,2.845,2.845,2.845,2.832,2.819,2.806,2.793,2.781,2.768,2.756,2.756,2.756,2.768,2.781,2.793,2.806,2.832,2.858,2.885,2.899,2.941,2.969,2.983,2.983,2.969,2.941,2.899,2.858,2.806,2.756,2.695,2.66,2.615,2.582,0,0,0,0,0,0,0,0,0,0,0,0,0,0,0,0,0,0,0,0,0,0,0,0,0,0,0,0,0,0,0,0,0,0,0,0,0.455,0.455,0.454,0.453,0.453,0.452,0.452,0.451,0.451,0.451,0.451,0.451,0.451,0.451,0.452,0.452,0.452,0.453,0.453,0.453,0.453,0.453,0.454,0.454,0.455,0.455,0.456,0.457,0.457,0.458,0.459,0.46,0.461,0.462,0.463,0.464,0.465,0.465,0.466,0.466,0.467,0.468,0.469,0.469,0.471,0.472,0.473,0.474,0.475,0.476,0.477,0.478,0.479,0.48,0.481,0.482,0.483,0.484,0.485,0.486,0.486,0.487,0.487,0.488,0.488,0.488,0.489,0.489,0.488,0.488,0.487,0.487,0.486,0.486,0.485,0.485,0.484,0.483,0.483,0.482,0.482,0.481,0.481,0.48,0.479,0.479,0.479,0.479,0.479,0.479,0.48,0.481,0.481,0.482,0.483,0.484,0.486,0.488,0.49,0.491,0.492,0.494,0.495,0.497,0.498,0.499,0.499,0.5,0.501,0.502,0.503,0.504,0.505,0.507,0.508,0.509,0.51,0.511,0.512,0.514,0.515,0.516,0.518,0.519,0.52,0.521,0.523,0.524,0.525,0.527,0.528,0.53,0.531,0.533,0.534,0.536,0.537,0.539,0.54,0.541,0.541,0.542,0.543,0.543,0.544,0.544,0.545,0.546,0.547,0.548,0.549,0.55,0.551,0.552,0.553,0.554,0.554,0.555,0.555,0.555,0.555,0.555,0.555,0.554,0.553,0.552,0.551,0.55,0.549,0.548,0.547,0.547,0.546,0.546,0.546,0.547,0.548,0.549,0.55,0.551,0.553,0.554,0.556,0.558,0.559,0.561,0.562,0.564,0.565,0.567,0.569,0.57,0.571,0.572,0.574,0.575,0.577,0.579,0.581,0.583,0.585,0.586,0.588,0.59,0.591,0.593,0.594,0.597,0.601,0.604,0.608,0.611,0.615,0.618,0.62,0.623,0.625,0.626,0.628,0.629,0.63,0.632,0.633,0.635,0.638,0.64,0.642,0.645,0.648,0.65,0.653,0.656,0.658,0.66,0.662,0.664,0.667,0.669,0.671,0.673,0.675,0.677,0.681,0.684,0.687,0.691,0.696,0.702,0.707,0.712,0.715,0.72,0.722,0.726,0.727,0.728,0.728,0.729,0.731,0.731,0.731,0.731,0.732,0,0,3.395,3.414,3.414,3.414,3.414,3.414,3.433,3.433,3.433,3.414,3.414,3.395,3.395,3.377,3.377,3.377,3.377,3.395,3.414,3.414,3.433,3.453,3.453,3.453,3.453,3.453,3.453,0,0,0,0,0,0,0,0,0,0,0,0,0,0,0,0,0,0,0,0,0,0,0.74,0.738,0.732,0.73,0.728,0.727,0.726,0.724,0.723,0.722,0.722,0.722,0.723,0.724,0.724,0.725,0.725,0.725,0.726,0.726,0.726,0.726,0.727,0.727,0.727,0.729,0.73,0.731,0.733,0.736,0.738,0.74,0.742,0.743,0.745,0.748,0.748,0.748,0.748,0.749,0.749,0.749,0.75,0.751,0.753,0.754,0.757,0.761,0.762,0.764,0.766,0.768,0.769,0.77,0.772,0.773,0.773,0.775,0.776,0.777,0.779,0.781,0.783,0.785,0.787,0.789,0.791,0.793,0.794,0.796,0.799,0.802,0.805,0.809,0.812,0.815,0.818,0.822,0.824,0.827,0.83,0.835,0.84,0,0.851,0.857,0,0.869,0.872,0.874,0.873,0.87,0.868,0.864,0.86,0.855,0.85,0.843,0.837,0.833,0.828,0.824,0.821,0.817,0.815,0.813,0.811,0.809,0.808,0.807,0.804,0.802,0.801,0.8,0.799,0.798,0.799,0.798,0.797,0.797,0.796,0.796,0.798,0.799,0.799,0.801,0.802,0.804,0.808,0.81,0.812,0.813,0,0,0,0,0,1.976,1.976,1.976,1.97,1.976,1.976,1.982,1.989,1.989,1.989,1.989,1.989,1.989,1.989,1.995,1.995,2.002,2.008,2.015,2.022,2.028,2.035,2.042,2.049,2.062,2.076,2.083,2.09,2.097,2.112
0,0,0,0,0,0,0,0,0,0,3.94,3.94,3.94,3.94,3.965,3.965,3.965,3.965,3.94,3.94,3.94,3.94,3.94,3.914,3.914,3.914,3.865,3.817,3.77,3.702,3.615,3.532,3.453,3.377,3.269,3.201,3.12,3.027,2.955,2.885,2.806,2.744,2.684,2.638,2.604,2.571,2.561,2.55,2.55,2.55,2.55,2.561,2.582,2.593,2.604,2.604,2.615,2.615,2.626,2.638,2.638,2.638,2.649,2.649,2.66,2.66,2.66,2.672,2.672,2.684,2.684,2.695,2.707,2.719,2.731,2.756,2.781,2.806,2.819,2.832,2.832,2.845,2.845,2.845,2.845,2.832,2.832,2.819,2.793,2.793,2.768,2.756,2.768,2.768,2.768,2.768,2.781,2.793,2.806,2.832,2.858,2.872,2.885,2.926,2.955,2.969,2.983,2.969,2.941,2.913,2.872,2.845,2.793,2.731,2.695,2.66,2.615,2.571,0,0,0,0,0,0,0,0,0,0,0,0,0,0,0,0,0,0,0,0,0,0,0,0,0,0,0,0,0,0,0,0,0,0,0,0.455,0.455,0.454,0.454,0.453,0.453,0.452,0.452,0.452,0.451,0.451,0.451,0.452,0.452,0.452,0.452,0.453,0.453,0.453,0.453,0.454,0.454,0.454,0.454,0.455,0.456,0.456,0.457,0.457,0.458,0.459,0.46,0.461,0.462,0.463,0.464,0.465,0.465,0.466,0.467,0.467,0.468,0.469,0.47,0.471,0.472,0.473,0.475,0.476,0.476,0.478,0.479,0.48,0.481,0.482,0.484,0.484,0.485,0.486,0.487,0.487,0.488,0.489,0.489,0.489,0.489,0.49,0.489,0.489,0.489,0.488,0.488,0.487,0.486,0.485,0.485,0.484,0.484,0.483,0.482,0.482,0.481,0.481,0.48,0.479,0.479,0.479,0.479,0.479,0.48,0.48,0.481,0.481,0.482,0.483,0.484,0.486,0.488,0.49,0.491,0.493,0.494,0.496,0.497,0.498,0.5,0.5,0.502,0.503,0.503,0.504,0.505,0.506,0.507,0.508,0.51,0.51,0.511,0.513,0.514,0.516,0.518,0.519,0.52,0.521,0.523,0.524,0.526,0.527,0.528,0.53,0.531,0.532,0.533,0.535,0.537,0.538,0.54,0.541,0.541,0.542,0.543,0.544,0.544,0.545,0.545,0.546,0.547,0.548,0.549,0.55,0.551,0.552,0.553,0.554,0.554,0.555,0.555,0.555,0.556,0.556,0.555,0.555,0.554,0.553,0.552,0.551,0.55,0.549,0.548,0.547,0.547,0.546,0.546,0.546,0.547,0.548,0.549,0.551,0.552,0.554,0.555,0.557,0.559,0.56,0.562,0.563,0.565,0.566,0.568,0.57,0.571,0.573,0.574,0.575,0.577,0.579,0.58,0.582,0.584,0.586,0.588,0.59,0.591,0.593,0.594,0.596,0.598,0.603,0.606,0.609,0.613,0.616,0.62,0.622,0.625,0.626,0.628,0.629,0.63,0.632,0.633,0.635,0.636,0.638,0.641,0.644,0.646,0.648,0.651,0.654,0.656,0.659,0.661,0.663,0.664,0.667,0.669,0.672,0.674,0.675,0.678,0.681,0.685,0.689,0.693,0.698,0.703,0.708,0.713,0.716,0.72,0.722,0.724,0.726,0.726,0.726,0.726,0.728,0.728,0.729,0.729,0.73,0,0,3.433,3.433,3.433,3.433,3.433,3.433,3.433,3.433,3.433,3.414,3.395,3.395,3.377,3.377,3.377,3.377,3.377,3.377,3.395,3.395,3.414,3.414,3.433,3.433,3.433,3.433,3.433,0,0,0,0,0,0,0,0,0,0,0,0,0,0,0,0,0,0,0,0,0,0,0,0.744,0.738,0.733,0.731,0.729,0.727,0.725,0.724,0.722,0.723,0.723,0.724,0.724,0.724,0.725,0.725,0.725,0.726,0.726,0.726,0.726,0.726,0.727,0.728,0.728,0.73,0.732,0.733,0.736,0.738,0.74,0.742,0.744,0.746,0.749,0.749,0.75,0.749,0.75,0.75,0.751,0.752,0.753,0.753,0.755,0.758,0.761,0.762,0.765,0.767,0.768,0.77,0.771,0.772,0.773,0.774,0.776,0.777,0.78,0.782,0.784,0.786,0.788,0.791,0.793,0.796,0.799,0.8,0.803,0.805,0.81,0.813,0.816,0.819,0.823,0.825,0.828,0.83,0.834,0.836,0.841,0,0.85,0,0.862,0.868,0.874,0.878,0.879,0.878,0.875,0.87,0.867,0.862,0.856,0.849,0.842,0.837,0.833,0.828,0.825,0.822,0.819,0.817,0.815,0.813,0.812,0.81,0.809,0.807,0.804,0.803,0.802,0.802,0.801,0.8,0.799,0.799,0.798,0.798,0.798,0.799,0.8,0.802,0.802,0.804,0.807,0.809,0.811,0.813,0.814,0,0,0,0,1.995,1.989,1.982,1.982,1.976,1.976,1.976,1.982,1.989,1.989,1.982,1.982,1.982,1.982,1.982,1.982,1.989,1.989,2.002,2.008,2.015,2.022,2.028,2.042,2.055,2.062,2.076,2.09,2.09,2.097,2.112
0,0,0,0,0,0,0,0,0,0,0,3.94,3.94,3.94,3.94,3.965,3.94,3.94,3.914,3.914,3.914,3.914,3.914,3.89,3.89,3.865,3.841,3.794,3.725,3.658,3.594,3.512,3.433,3.358,3.269,3.201,3.12,3.042,2.969,2.899,2.819,2.756,2.695,2.649,2.615,2.582,2.561,2.55,2.55,2.55,2.55,2.561,2.582,2.593,2.604,2.615,2.615,2.626,2.626,2.638,2.638,2.649,2.649,2.66,2.66,2.672,2.66,2.672,2.672,2.684,2.684,2.695,2.707,2.719,2.744,2.756,2.781,2.806,2.819,2.832,2.832,2.845,2.845,2.832,2.832,2.819,2.832,2.819,2.806,2.793,2.768,2.768,2.768,2.768,2.768,2.781,2.781,2.793,2.806,2.832,2.845,2.872,2.885,2.913,2.941,2.969,2.983,2.969,2.955,2.941,2.913,2.885,2.845,2.793,2.768,2.719,0,0,0,0,0,0,0,0,0,0,0,0,0,0,0,0,0,0,0,0,0,0,0,0,0,0,0,0,0,0,0,0,0,0,0,0,0,0,0,0.454,0.454,0.453,0.453,0.453,0.452,0.452,0.452,0.452,0.452,0.452,0.452,0.453,0.453,0.453,0.453,0.453,0.454,0.454,0.454,0.454,0.455,0.455,0.456,0.457,0.457,0.458,0.459,0.459,0.46,0.461,0.462,0.463,0.464,0.465,0.466,0.466,0.467,0.468,0.469,0.47,0.471,0.472,0.473,0.474,0.475,0.476,0.477,0.479,0.479,0.481,0.482,0.483,0.484,0.485,0.486,0.487,0.487,0.488,0.489,0.489,0.489,0.49,0.49,0.49,0.49,0.489,0.489,0.489,0.488,0.487,0.486,0.486,0.485,0.484,0.484,0.483,0.483,0.482,0.482,0.481,0.481,0.48,0.48,0.48,0.48,0.48,0.481,0.481,0.481,0.482,0.483,0.484,0.485,0.487,0.489,0.49,0.492,0.493,0.495,0.496,0.498,0.499,0.5,0.501,0.502,0.503,0.504,0.505,0.505,0.507,0.508,0.509,0.51,0.511,0.512,0.513,0.516,0.517,0.519,0.519,0.521,0.523,0.524,0.525,0.527,0.528,0.528,0.53,0.532,0.533,0.534,0.536,0.538,0.539,0.541,0.541,0.542,0.543,0.544,0.544,0.545,0.546,0.546,0.547,0.548,0.549,0.55,0.551,0.552,0.553,0.554,0.554,0.555,0.555,0.555,0.556,0.556,0.556,0.555,0.555,0.554,0.553,0.552,0.551,0.55,0.549,0.548,0.547,0.546,0.546,0.546,0.546,0.548,0.548,0.55,0.551,0.553,0.555,0.556,0.558,0.56,0.561,0.563,0.565,0.566,0.568,0.57,0.571,0.572,0.574,0.575,0.577,0.579,0.58,0.582,0.584,0.585,0.588,0.589,0.591,0.593,0.594,0.596,0.598,0.6,0.604,0.608,0.611,0.615,0.618,0.621,0.623,0.626,0.627,0.629,0.63,0.632,0.633,0.634,0.636,0.638,0.64,0.642,0.644,0.647,0.65,0.652,0.654,0.657,0.659,0.661,0.664,0.665,0.668,0.67,0.672,0.675,0.677,0.68,0.683,0.686,0.691,0.694,0.699,0.705,0.71,0.714,0.717,0.72,0.722,0.725,0.725,0.726,0.726,0.726,0.728,0.728,0.729,0.729,0.73,0,0,3.433,3.433,3.453,3.453,3.433,3.453,3.453,3.453,3.433,3.414,3.395,3.395,3.377,3.377,3.377,3.358,3.358,3.377,3.377,3.395,3.395,3.414,3.395,3.414,3.414,3.414,3.395,0,0,0,0,0,0,0,0,0,0,0,0,0,0,0,0,0,0,0,0,0,0,0,0,0.742,0.737,0.732,0.732,0.728,0.726,0.724,0.723,0.723,0.724,0.724,0.725,0.725,0.725,0.725,0.726,0.726,0.726,0.726,0.727,0.727,0.727,0.727,0.728,0.73,0.732,0.733,0.735,0.738,0.74,0.742,0.745,0.748,0.75,0.751,0.752,0.751,0.753,0.753,0.753,0.754,0.754,0.755,0.757,0.759,0.762,0.762,0.764,0.766,0.768,0.77,0.771,0.772,0.774,0.775,0.777,0.778,0.781,0.784,0.786,0.789,0.791,0.794,0.797,0.801,0.803,0.807,0.81,0.813,0.816,0.819,0.823,0.826,0.828,0.83,0.833,0.835,0.838,0.841,0.845,0.849,0.855,0.861,0.867,0.873,0.879,0.883,0.884,0.883,0.879,0.875,0.869,0.864,0.857,0.85,0.843,0.837,0.833,0.829,0.825,0.823,0.819,0.817,0.816,0.814,0.813,0.811,0.809,0.808,0.807,0.804,0.803,0.803,0.802,0.801,0.802,0.801,0.8,0.8,0.8,0.801,0.802,0.804,0.804,0.807,0.809,0.812,0.813,0.816,0,0,0,0,2.022,2.008,2.002,1.995,1.989,1.989,1.982,1.982,1.982,1.989,1.982,1.976,1.976,1.976,1.976,1.976,1.976,1.982,1.982,1.995,2.002,2.008,2.022,2.028,2.042,2.049,2.069,2.076,2.09,2.09,2.105,2.112
0,0,0,0,0,0,0,0,0,0,0,3.94,0,3.94,3.94,3.94,3.914,3.914,3.914,3.914,3.89,3.865,3.865,3.865,3.841,3.817,3.794,3.747,3.702,3.615,3.552,3.492,3.414,3.34,3.269,3.184,3.12,3.042,2.983,2.913,2.832,2.768,2.707,2.66,2.615,2.593,2.571,2.55,2.55,2.55,2.55,2.561,2.571,2.593,2.604,2.615,2.615,2.626,2.626,2.638,2.638,2.649,2.649,2.66,2.672,2.672,2.672,2.672,2.672,2.684,2.684,2.695,2.707,2.719,2.744,2.756,2.768,2.793,2.819,2.832,2.832,2.832,2.832,2.832,2.832,2.819,2.819,2.806,2.793,2.781,2.768,2.768,2.768,2.768,2.781,2.781,2.781,2.793,2.806,2.832,2.845,2.858,2.885,2.913,2.941,2.955,2.983,2.983,2.969,2.955,2.941,2.913,2.872,2.832,2.806,0,0,0,0,0,0,0,0,0,0,0,0,0,0,0,0,0,0,0,0,0,0,0,0,0,0,0,0,0,0,0,0,0,0,0,0,0,0.456,0.455,0.455,0.454,0.454,0.454,0.453,0.453,0.453,0.453,0.452,0.452,0.453,0.453,0.453,0.453,0.453,0.453,0.454,0.454,0.454,0.454,0.455,0.455,0.455,0.456,0.457,0.457,0.458,0.458,0.459,0.459,0.46,0.461,0.462,0.463,0.465,0.465,0.466,0.467,0.468,0.468,0.469,0.471,0.471,0.472,0.473,0.475,0.476,0.477,0.478,0.479,0.48,0.481,0.482,0.484,0.485,0.486,0.487,0.487,0.488,0.489,0.489,0.49,0.49,0.49,0.49,0.49,0.49,0.49,0.489,0.489,0.488,0.487,0.487,0.486,0.485,0.485,0.484,0.484,0.483,0.482,0.482,0.482,0.481,0.481,0.481,0.481,0.481,0.481,0.481,0.482,0.482,0.483,0.484,0.485,0.486,0.487,0.489,0.49,0.492,0.494,0.495,0.497,0.498,0.5,0.501,0.502,0.503,0.504,0.505,0.505,0.506,0.507,0.509,0.51,0.511,0.512,0.513,0.514,0.515,0.517,0.518,0.52,0.521,0.523,0.524,0.525,0.527,0.528,0.529,0.531,0.532,0.533,0.535,0.537,0.539,0.54,0.541,0.542,0.543,0.544,0.545,0.546,0.546,0.546,0.547,0.548,0.549,0.55,0.551,0.552,0.553,0.553,0.554,0.555,0.555,0.556,0.556,0.556,0.556,0.556,0.555,0.555,0.554,0.553,0.552,0.551,0.55,0.549,0.548,0.547,0.547,0.546,0.546,0.547,0.548,0.549,0.55,0.552,0.553,0.555,0.557,0.559,0.561,0.563,0.564,0.566,0.568,0.57,0.571,0.573,0.574,0.576,0.577,0.579,0.58,0.582,0.584,0.585,0.587,0.589,0.59,0.593,0.594,0.596,0.597,0.599,0.601,0.605,0.608,0.612,0.615,0.618,0.621,0.624,0.626,0.628,0.63,0.631,0.632,0.634,0.636,0.637,0.638,0.64,0.642,0.645,0.648,0.65,0.653,0.655,0.658,0.659,0.662,0.664,0.667,0.669,0.672,0.674,0.676,0.678,0.681,0.684,0.688,0.692,0.697,0.701,0.706,0.71,0.715,0.718,0.72,0.723,0.725,0.725,0.726,0.726,0.726,0.728,0.728,0.729,0.729,0.731,0,0,3.453,3.453,3.453,3.453,3.453,3.453,3.453,3.433,3.433,3.414,3.395,3.377,3.377,3.377,3.358,3.358,3.358,3.358,3.358,3.377,3.377,3.377,3.377,3.377,3.377,3.377,3.377,0,0,0,0,0,0,0,0,0,0,0,0,0,0,0,0,0,0,0,0.779,0,0,0,0.753,0.747,0.74,0.735,0.733,0.73,0.727,0.726,0.724,0.724,0.724,0.725,0.725,0.725,0.726,0.726,0.726,0.726,0.727,0.727,0.727,0.727,0.728,0.728,0.729,0.73,0.732,0.733,0.736,0.738,0.74,0.742,0.745,0.749,0.751,0.753,0.754,0.754,0.754,0.755,0.756,0.756,0.756,0.756,0.757,0.759,0.761,0.762,0.764,0.765,0.767,0.769,0.77,0.772,0.773,0.775,0.777,0.779,0.783,0.785,0.788,0.791,0.794,0.797,0.801,0.805,0.809,0.812,0.815,0.818,0.822,0.825,0.828,0.832,0.833,0.835,0.838,0.841,0.843,0.847,0.85,0.855,0.86,0.866,0.872,0.878,0.884,0.887,0.888,0.887,0.882,0.877,0.872,0.867,0.86,0.851,0.843,0.837,0.833,0.829,0.826,0.824,0.822,0.819,0.817,0.815,0.813,0.812,0.81,0.809,0.808,0.807,0.805,0.804,0.804,0.803,0.803,0.802,0.801,0.801,0.802,0.803,0.804,0.805,0.808,0.809,0.811,0.814,0.815,0.817,0,0,0,2.055,2.042,2.028,2.015,2.008,2.002,1.995,1.989,1.989,1.989,1.989,1.982,1.976,1.97,1.97,1.963,1.963,1.963,1.97,1.97,1.982,1.989,1.995,2.008,2.028,2.035,2.049,2.062,2.076,2.09,2.09,2.097,2.112
0,0,0,0,0,0,0,0,0,0,0,0,0,3.94,3.94,3.94,3.914,3.914,3.89,3.89,3.865,3.865,3.841,3.841,3.817,3.794,3.747,3.725,3.658,3.594,3.532,3.453,3.395,3.322,3.252,3.184,3.12,3.042,2.983,2.926,2.845,2.781,2.719,2.672,2.626,2.593,2.571,2.55,2.55,2.55,2.55,2.561,2.571,2.582,2.604,2.604,2.615,2.626,2.626,2.638,2.638,2.649,2.649,2.66,2.66,2.672,2.672,2.672,2.684,2.684,2.684,2.695,2.707,2.719,2.744,2.756,2.768,2.793,2.819,2.819,2.832,2.832,2.832,2.819,2.819,2.819,2.806,2.793,2.781,2.768,2.768,2.756,2.768,2.768,2.781,2.781,2.781,2.793,2.806,2.819,2.845,2.858,2.872,2.913,2.941,2.955,2.983,2.983,2.983,2.969,2.955,2.941,2.913,2.872,2.845,0,0,0,0,0,0,0,0,0,0,0,0,0,0,0,0,0,0,0,0,0,0,0,0,0,0,0,0,0,0,0,0,0,0,0,0,0,0.455,0.455,0.455,0.455,0.454,0.454,0.454,0.454,0.453,0.453,0.453,0.453,0.453,0.453,0.454,0.454,0.454,0.454,0.454,0.454,0.455,0.455,0.455,0.456,0.456,0.457,0.457,0.458,0.458,0.459,0.459,0.46,0.461,0.462,0.463,0.464,0.465,0.466,0.467,0.468,0.469,0.469,0.47,0.471,0.472,0.473,0.474,0.475,0.476,0.478,0.478,0.479,0.481,0.482,0.483,0.484,0.485,0.486,0.487,0.488,0.488,0.489,0.489,0.49,0.49,0.491,0.491,0.491,0.491,0.49,0.49,0.489,0.488,0.487,0.487,0.486,0.485,0.485,0.484,0.484,0.483,0.483,0.482,0.482,0.482,0.482,0.482,0.482,0.482,0.482,0.482,0.482,0.483,0.483,0.484,0.485,0.487,0.488,0.49,0.491,0.492,0.494,0.496,0.498,0.499,0.5,0.501,0.503,0.503,0.505,0.505,0.506,0.507,0.508,0.509,0.51,0.511,0.512,0.513,0.513,0.516,0.517,0.519,0.52,0.521,0.523,0.524,0.526,0.528,0.528,0.529,0.531,0.533,0.534,0.535,0.537,0.539,0.541,0.542,0.543,0.544,0.545,0.545,0.546,0.547,0.548,0.548,0.549,0.55,0.551,0.552,0.553,0.554,0.554,0.555,0.555,0.556,0.556,0.556,0.556,0.556,0.556,0.555,0.555,0.554,0.553,0.552,0.551,0.55,0.549,0.548,0.548,0.547,0.547,0.547,0.547,0.548,0.549,0.551,0.552,0.554,0.556,0.558,0.561,0.563,0.565,0.566,0.568,0.57,0.572,0.574,0.575,0.577,0.578,0.579,0.58,0.582,0.584,0.585,0.587,0.589,0.59,0.592,0.594,0.596,0.597,0.599,0.601,0.604,0.607,0.609,0.612,0.615,0.618,0.621,0.624,0.626,0.628,0.63,0.631,0.632,0.634,0.636,0.638,0.639,0.641,0.643,0.646,0.648,0.651,0.654,0.656,0.659,0.661,0.663,0.666,0.668,0.671,0.674,0.676,0.678,0.681,0.684,0.687,0.691,0.694,0.698,0.703,0.708,0.712,0.716,0.719,0.721,0.723,0.725,0.725,0.726,0.726,0.727,0.728,0.729,0.729,0.73,0.731,0,0,3.472,3.472,3.453,3.453,3.453,3.433,3.433,3.433,3.414,3.395,3.395,3.377,3.358,3.358,3.358,3.34,3.34,3.34,3.358,3.358,3.358,3.358,3.358,3.358,3.358,3.358,3.34,3.34,0,0,0,0,0,0,0,0,0,0,0,0,0,0,0,0,0,0,0,0.775,0.767,0.762,0.759,0.749,0.744,0.738,0.735,0.732,0.729,0.726,0.726,0.725,0.726,0.726,0.726,0.726,0.726,0.726,0.726,0.727,0.727,0.727,0.727,0.728,0.728,0.729,0.729,0.73,0.732,0.733,0.736,0.739,0.74,0.743,0.747,0.75,0.753,0.755,0.755,0.756,0.757,0.758,0.758,0.758,0.758,0.759,0.759,0.761,0.762,0.762,0.764,0.765,0.766,0.768,0.769,0.771,0.773,0.775,0.777,0.78,0.784,0.787,0.791,0.794,0.796,0.8,0.804,0.809,0.812,0.816,0.819,0.824,0.827,0.83,0.835,0.837,0.838,0.841,0.844,0.845,0.848,0.851,0.855,0.86,0.866,0.87,0.877,0.882,0.887,0.891,0.893,0.889,0.886,0.88,0.874,0.868,0.862,0.854,0.844,0.838,0.834,0.83,0.827,0.825,0.823,0.819,0.817,0.815,0.813,0.812,0.811,0.81,0.809,0.808,0.807,0.807,0.805,0.804,0.805,0.803,0.802,0.802,0.804,0.804,0.807,0.808,0.809,0.81,0.813,0.815,0.816,0.817,0,0,2.09,2.076,2.062,2.049,2.035,2.022,2.015,2.008,2.002,1.995,1.995,1.989,1.982,1.976,1.97,1.963,1.957,1.957,1.957,1.963,1.963,1.976,1.982,1.989,2.002,2.015,2.035,2.042,2.055,2.076,2.083,2.09,2.097,2.105
0,0,0,0,0,0,0,0,0,0,0,0,0,0,0,3.94,3.914,3.89,3.89,3.865,3.865,3.841,3.841,3.817,3.794,3.77,3.725,3.68,3.615,3.573,3.512,3.433,3.377,3.304,3.235,3.184,3.12,3.058,2.998,2.926,2.858,2.793,2.744,2.684,2.638,2.604,2.571,2.55,2.55,2.55,2.55,2.561,2.571,2.582,2.593,2.604,2.604,2.615,2.626,2.626,2.626,2.638,2.649,2.66,2.66,2.672,2.672,2.672,2.684,2.684,2.684,2.695,2.707,2.719,2.731,2.756,2.768,2.781,2.793,2.819,2.819,2.819,2.819,2.819,2.806,2.793,2.793,2.781,2.768,2.768,2.768,2.768,2.768,2.768,2.768,2.781,2.793,2.793,2.806,2.819,2.832,2.845,2.872,2.899,2.941,2.955,2.983,2.998,2.998,2.983,2.983,2.969,2.955,2.926,2.899,2.885,0,0,0,0,0,0,0,0,0,0,0,0,0,0,0,0,0,0,0,0,0,0,0,0,0,0,0,0,0,0,0,0,0,0,0,0,0,0.456,0.455,0.455,0.455,0.455,0.454,0.454,0.454,0.454,0.454,0.454,0.454,0.454,0.454,0.454,0.454,0.454,0.455,0.455,0.455,0.456,0.456,0.456,0.457,0.458,0.458,0.459,0.459,0.46,0.46,0.461,0.462,0.463,0.464,0.465,0.466,0.467,0.468,0.469,0.469,0.47,0.471,0.472,0.473,0.474,0.475,0.476,0.476,0.478,0.479,0.48,0.481,0.482,0.483,0.484,0.485,0.486,0.487,0.488,0.489,0.489,0.49,0.49,0.491,0.491,0.491,0.491,0.491,0.49,0.49,0.489,0.489,0.488,0.487,0.486,0.485,0.485,0.484,0.484,0.484,0.483,0.483,0.483,0.482,0.482,0.482,0.482,0.483,0.483,0.483,0.484,0.484,0.484,0.485,0.486,0.488,0.489,0.49,0.491,0.493,0.494,0.496,0.498,0.5,0.501,0.502,0.503,0.504,0.505,0.506,0.507,0.507,0.508,0.51,0.51,0.511,0.512,0.513,0.514,0.516,0.517,0.519,0.52,0.521,0.523,0.524,0.526,0.528,0.529,0.53,0.531,0.533,0.534,0.535,0.537,0.539,0.541,0.542,0.544,0.545,0.545,0.546,0.547,0.548,0.549,0.55,0.551,0.551,0.552,0.553,0.554,0.554,0.555,0.556,0.556,0.556,0.556,0.557,0.557,0.556,0.556,0.556,0.555,0.554,0.553,0.553,0.552,0.551,0.55,0.549,0.548,0.548,0.547,0.548,0.548,0.549,0.55,0.551,0.553,0.555,0.557,0.56,0.562,0.564,0.566,0.569,0.571,0.572,0.574,0.575,0.577,0.579,0.58,0.581,0.583,0.584,0.585,0.587,0.589,0.59,0.592,0.594,0.596,0.598,0.599,0.6,0.603,0.605,0.607,0.61,0.612,0.615,0.618,0.621,0.623,0.626,0.628,0.63,0.631,0.633,0.634,0.636,0.638,0.64,0.641,0.643,0.646,0.649,0.652,0.654,0.657,0.659,0.662,0.664,0.667,0.67,0.673,0.676,0.678,0.681,0.683,0.687,0.689,0.693,0.698,0.701,0.705,0.709,0.713,0.716,0.72,0.722,0.724,0.725,0.726,0.726,0.726,0.728,0.729,0.731,0.731,0.732,0.732,0,0,3.453,3.453,3.453,3.453,3.433,3.433,3.433,3.433,3.414,3.395,3.377,3.377,3.358,3.358,3.358,3.34,3.34,3.34,3.34,3.34,3.358,3.34,3.34,3.322,3.322,3.322,3.322,3.304,0,0,0,0,0,0,0,0,0,0,0,0,0,0,0,0,0,0,0,0.777,0.77,0.764,0.761,0.753,0.747,0.74,0.737,0.732,0.73,0.728,0.726,0.727,0.727,0.727,0.727,0.727,0.728,0.728,0.728,0.728,0.728,0.728,0.728,0.729,0.729,0.729,0.729,0.73,0.732,0.733,0.735,0.739,0.74,0.743,0.747,0.75,0.754,0.756,0.757,0.757,0.759,0.76,0.76,0.761,0.761,0.76,0.761,0.762,0.762,0.763,0.763,0.764,0.765,0.767,0.768,0.771,0.773,0.775,0.778,0.781,0.785,0.789,0.793,0.796,0.799,0.802,0.808,0.813,0.817,0.821,0.825,0.828,0.833,0.837,0.841,0.843,0.845,0.847,0.85,0.851,0.854,0.857,0.86,0.864,0.869,0.874,0.879,0.886,0.891,0.895,0.896,0.892,0.887,0.882,0.875,0.869,0.862,0.854,0.845,0.838,0.835,0.832,0.827,0.825,0.823,0.819,0.817,0.815,0.813,0.812,0.811,0.81,0.809,0.809,0.808,0.807,0.807,0.807,0.807,0.804,0.803,0.804,0.805,0.807,0.809,0.81,0.811,0.811,0.814,0.816,0.817,0,0,2.119,2.105,2.09,2.083,2.069,2.055,2.042,2.035,2.022,2.015,2.008,2.002,1.995,1.989,1.976,1.97,1.957,1.951,1.951,1.951,1.951,1.951,1.963,1.97,1.982,1.995,2.015,2.028,2.042,2.055,2.069,2.076,2.083,2.09,2.097
0,0,0,0,0,0,0,0,0,0,0,0,0,0,0,0,3.89,3.89,3.865,3.865,3.841,3.817,3.794,3.794,3.77,3.725,3.68,3.636,3.594,3.532,3.492,3.433,3.358,3.304,3.235,3.184,3.12,3.073,3.013,2.941,2.872,2.806,2.756,2.695,2.649,2.604,2.571,2.55,2.55,2.55,2.55,2.561,2.571,2.571,2.582,2.593,2.604,2.615,2.626,2.626,2.626,2.638,2.649,2.649,2.66,2.672,2.672,2.684,2.684,2.684,2.684,2.695,2.707,2.719,2.731,2.744,2.756,2.781,2.793,2.793,2.793,2.806,2.806,2.793,2.793,2.781,2.781,2.781,2.768,2.768,2.756,2.756,2.768,2.768,2.781,2.781,2.793,2.793,2.806,2.819,2.832,2.845,2.858,2.885,2.926,2.955,2.983,2.983,2.998,2.998,3.013,3.013,2.998,2.998,2.983,2.969,2.969,0,0,0,0,0,0,0,0,0,0,0,0,0,0,0,0,0,0,0,0,0,0,0,0,0,0,0,0,0,0,0,0,0,0,0,0,0,0.455,0.455,0.455,0.455,0.455,0.455,0.455,0.455,0.455,0.455,0.455,0.455,0.455,0.455,0.455,0.455,0.455,0.456,0.456,0.456,0.457,0.457,0.458,0.458,0.459,0.459,0.46,0.461,0.461,0.462,0.463,0.464,0.465,0.466,0.467,0.468,0.469,0.47,0.471,0.471,0.472,0.473,0.474,0.475,0.475,0.476,0.477,0.478,0.479,0.48,0.481,0.482,0.483,0.484,0.485,0.487,0.487,0.488,0.489,0.49,0.49,0.49,0.491,0.491,0.492,0.492,0.491,0.491,0.49,0.49,0.489,0.488,0.487,0.486,0.486,0.485,0.485,0.484,0.484,0.484,0.483,0.483,0.483,0.483,0.483,0.483,0.484,0.484,0.484,0.484,0.485,0.485,0.486,0.487,0.489,0.49,0.491,0.492,0.494,0.495,0.497,0.499,0.5,0.501,0.503,0.504,0.505,0.506,0.507,0.507,0.508,0.509,0.51,0.511,0.512,0.513,0.513,0.514,0.516,0.518,0.52,0.521,0.523,0.524,0.525,0.527,0.529,0.529,0.531,0.532,0.533,0.535,0.536,0.538,0.54,0.541,0.543,0.544,0.545,0.546,0.547,0.548,0.549,0.55,0.551,0.552,0.553,0.553,0.554,0.555,0.555,0.556,0.556,0.557,0.557,0.557,0.557,0.557,0.557,0.556,0.556,0.555,0.555,0.554,0.553,0.552,0.551,0.55,0.55,0.549,0.549,0.548,0.549,0.549,0.55,0.551,0.552,0.554,0.556,0.559,0.562,0.564,0.567,0.569,0.571,0.573,0.574,0.576,0.578,0.579,0.58,0.582,0.583,0.584,0.586,0.587,0.589,0.59,0.592,0.594,0.596,0.597,0.598,0.6,0.602,0.604,0.605,0.608,0.61,0.613,0.615,0.618,0.621,0.623,0.625,0.628,0.63,0.632,0.634,0.635,0.637,0.638,0.64,0.642,0.644,0.647,0.65,0.653,0.656,0.659,0.661,0.664,0.667,0.67,0.673,0.676,0.679,0.682,0.684,0.687,0.69,0.693,0.697,0.7,0.703,0.707,0.711,0.715,0.718,0.721,0.723,0.725,0.726,0.726,0.726,0.728,0.729,0.731,0.732,0.732,0.733,0.735,0,0,3.453,3.453,3.453,3.433,3.433,3.433,3.433,3.433,3.414,3.395,3.377,3.377,3.358,3.358,3.34,3.34,3.34,3.34,3.34,3.34,3.34,3.322,3.304,3.304,3.304,3.286,3.269,3.269,0,0,0,0,0,0,0,0,0,0,0,0,0,0,0,0,0,0,0,0.778,0.771,0,0.762,0.755,0.748,0.742,0.739,0.734,0.732,0.729,0.729,0.728,0.728,0.729,0.729,0.73,0.73,0.73,0.729,0.73,0.73,0.73,0.729,0.729,0.73,0.73,0.73,0.731,0.732,0.733,0.736,0.739,0.741,0.743,0.747,0.75,0.755,0.756,0.757,0.758,0.759,0.761,0.761,0.762,0.762,0.762,0.762,0.762,0.762,0.763,0.764,0.764,0.765,0.767,0.769,0.771,0.773,0.776,0.779,0.782,0.787,0.791,0.795,0.799,0.803,0.808,0.813,0.818,0.823,0.828,0.832,0.835,0.84,0.844,0.847,0.85,0.851,0.854,0.856,0.857,0.858,0.862,0.864,0.869,0.873,0.878,0.883,0.887,0.893,0.896,0.897,0.895,0.889,0.883,0.878,0.87,0.863,0.854,0.844,0.84,0.834,0.832,0.827,0.825,0.823,0.819,0.816,0.814,0.813,0.812,0.811,0.81,0.81,0.809,0.809,0.808,0.808,0.808,0.808,0.805,0.805,0.807,0.808,0.809,0.81,0.812,0.813,0.813,0.815,0.818,0.818,0,2.141,2.134,2.119,2.105,2.097,2.083,2.069,2.062,2.049,2.042,2.028,2.022,2.015,2.002,1.995,1.982,1.976,1.963,1.957,1.951,1.945,1.951,1.951,1.957,1.963,1.976,1.995,2.008,2.028,2.042,2.049,2.062,2.076,2.083,2.083,2.09
0,0,0,0,0,0,0,0,0,0,0,0,0,0,0,0,3.89,3.89,3.865,3.865,3.841,3.794,3.794,3.77,3.747,3.702,3.658,3.594,3.552,3.512,3.472,3.414,3.34,3.286,3.235,3.168,3.12,3.073,3.013,2.955,2.885,2.819,2.768,2.707,2.66,2.615,2.582,2.561,2.55,2.55,2.55,2.561,2.561,2.571,2.582,2.582,2.593,2.604,2.604,2.615,2.615,2.626,2.638,2.649,2.66,2.66,2.672,2.684,2.684,2.684,2.684,2.695,2.707,2.719,2.731,2.744,2.756,2.768,2.781,2.793,2.793,2.793,2.781,2.781,2.781,2.768,2.756,2.756,2.744,2.744,2.744,2.756,2.768,2.781,2.781,2.781,2.793,2.806,2.806,2.806,2.819,2.832,2.858,2.885,2.913,2.941,2.969,2.983,2.998,3.013,3.027,3.042,3.042,3.042,3.027,3.027,3.042,0,0,0,0,0,0,0,0,0,0,0,0,0,0,0,0,0,0,0,0,0,0,0,0,0,0,0,0,0,0,0,0,0,0,0,0,0.456,0.456,0.456,0.456,0.456,0.456,0.456,0.456,0.456,0.456,0.455,0.456,0.456,0.456,0.456,0.456,0.456,0.456,0.456,0.457,0.457,0.457,0.458,0.459,0.459,0.46,0.46,0.461,0.462,0.462,0.463,0.464,0.465,0.466,0.467,0.468,0.469,0.47,0.471,0.472,0.472,0.473,0.474,0.475,0.475,0.476,0.476,0.477,0.478,0.479,0.48,0.481,0.482,0.483,0.484,0.485,0.486,0.487,0.488,0.489,0.49,0.49,0.491,0.491,0.492,0.492,0.492,0.492,0.491,0.49,0.49,0.489,0.488,0.487,0.487,0.486,0.485,0.485,0.485,0.484,0.484,0.484,0.484,0.484,0.484,0.484,0.484,0.484,0.485,0.485,0.485,0.486,0.487,0.487,0.489,0.49,0.491,0.492,0.493,0.494,0.496,0.498,0.499,0.501,0.503,0.504,0.505,0.506,0.507,0.507,0.508,0.509,0.51,0.511,0.512,0.513,0.514,0.515,0.516,0.518,0.519,0.521,0.523,0.524,0.525,0.527,0.528,0.53,0.531,0.532,0.533,0.534,0.536,0.537,0.539,0.541,0.542,0.543,0.545,0.546,0.547,0.548,0.549,0.55,0.551,0.552,0.553,0.554,0.554,0.555,0.556,0.557,0.557,0.557,0.558,0.558,0.558,0.557,0.557,0.557,0.557,0.556,0.555,0.555,0.554,0.553,0.552,0.552,0.551,0.55,0.55,0.55,0.549,0.55,0.55,0.551,0.552,0.554,0.555,0.558,0.56,0.563,0.566,0.569,0.571,0.573,0.575,0.577,0.578,0.58,0.581,0.583,0.584,0.585,0.586,0.588,0.589,0.59,0.591,0.593,0.595,0.596,0.598,0.6,0.601,0.603,0.605,0.607,0.608,0.61,0.613,0.615,0.618,0.62,0.623,0.626,0.628,0.63,0.632,0.635,0.636,0.638,0.639,0.641,0.643,0.645,0.648,0.651,0.654,0.657,0.66,0.663,0.666,0.669,0.673,0.676,0.68,0.682,0.685,0.687,0.69,0.692,0.695,0.699,0.702,0.706,0.71,0.712,0.716,0.72,0.722,0.724,0.726,0.726,0.727,0.727,0.728,0.731,0.732,0.733,0.734,0.735,0,0,3.433,3.453,3.453,3.453,3.433,3.433,3.414,3.433,3.433,3.414,3.395,3.377,3.377,3.358,3.34,3.34,3.34,3.322,3.322,3.322,3.322,3.322,3.304,3.286,3.269,3.269,3.252,3.252,3.235,0,0,0,0,0,0,0,0,0,0,0,0,0,0,0,0,0,0,0,0.776,0.771,0,0.762,0.756,0.749,0.743,0.74,0.735,0.732,0.731,0.73,0.73,0.731,0.731,0.731,0.732,0.732,0.732,0.732,0.732,0.732,0.731,0.73,0.73,0.73,0.729,0.729,0.732,0.732,0.734,0.737,0.739,0.741,0.743,0.747,0.751,0.755,0.757,0.757,0.759,0.76,0.76,0.762,0.762,0.762,0.762,0.763,0.763,0.764,0.764,0.765,0.765,0.766,0.767,0.769,0.772,0.774,0.777,0.78,0.783,0.788,0.793,0.798,0.801,0.807,0.811,0.817,0.823,0.828,0.834,0.837,0.841,0.844,0.848,0.851,0.855,0.856,0.857,0.858,0.861,0.863,0.866,0.869,0.873,0.877,0.882,0.887,0.891,0.895,0.897,0.898,0.896,0.891,0.884,0.878,0.87,0.862,0.854,0.844,0.838,0.834,0.83,0.827,0.824,0.822,0.818,0.816,0.814,0.813,0.811,0.811,0.81,0.809,0.809,0.809,0.809,0.808,0.808,0.808,0.808,0.807,0.809,0.81,0.812,0.813,0.814,0.815,0.815,0.817,0.819,0.819,0,2.149,2.134,2.127,2.119,2.112,2.097,2.083,2.076,2.062,2.055,2.042,2.035,2.028,2.015,2.002,1.989,1.982,1.97,1.963,1.957,1.951,1.951,1.951,1.957,1.963,1.976,1.989,2.008,2.028,2.042,2.055,2.062,2.076,2.076,2.083,2.09
0,0,0,0,0,0,0,0,0,0,0,0,0,0,0,0,0,0,3.991,3.965,3.817,3.794,3.77,3.747,3.725,3.68,3.615,3.573,3.512,3.492,3.453,3.395,3.34,3.269,3.218,3.168,3.12,3.073,3.013,2.955,2.899,2.832,2.781,2.719,2.66,2.626,2.582,2.561,2.54,2.54,2.55,2.55,2.561,2.561,2.571,2.582,2.593,2.593,2.593,2.604,2.604,2.615,2.626,2.638,2.649,2.66,2.66,2.672,2.684,2.684,2.684,2.695,2.707,2.719,2.731,2.744,2.744,2.756,2.756,2.781,2.768,2.768,2.768,2.768,2.756,2.756,2.744,2.744,2.744,2.744,2.744,2.756,2.768,2.768,2.781,2.793,2.806,2.806,2.806,2.806,2.819,2.832,2.845,2.872,2.899,2.926,2.955,2.969,2.998,3.027,3.042,3.058,3.073,3.058,3.058,3.058,3.073,0,0,0,0,0,0,0,0,0,0,0,0,0,0,0,0,0,0,0,0,0,0,0,0,0,0,0,0,0,0,0,0,0,0,0,0,0.457,0.457,0.457,0.456,0.456,0.456,0.456,0.456,0.456,0.456,0.456,0.456,0.456,0.456,0.456,0.456,0.456,0.457,0.457,0.457,0.458,0.458,0.459,0.46,0.46,0.461,0.461,0.462,0.462,0.463,0.464,0.465,0.466,0.467,0.468,0.469,0.47,0.471,0.472,0.473,0.473,0.474,0.475,0.475,0.476,0.476,0.477,0.477,0.478,0.479,0.48,0.481,0.482,0.483,0.484,0.485,0.486,0.487,0.488,0.489,0.49,0.49,0.491,0.492,0.492,0.492,0.492,0.492,0.491,0.491,0.49,0.489,0.488,0.487,0.487,0.486,0.485,0.485,0.485,0.485,0.484,0.484,0.484,0.484,0.484,0.485,0.485,0.485,0.485,0.486,0.486,0.487,0.487,0.489,0.49,0.491,0.492,0.493,0.494,0.496,0.498,0.5,0.501,0.502,0.504,0.505,0.506,0.507,0.507,0.508,0.509,0.51,0.51,0.512,0.513,0.514,0.515,0.516,0.516,0.519,0.521,0.523,0.524,0.525,0.527,0.528,0.53,0.532,0.533,0.533,0.534,0.536,0.537,0.539,0.54,0.541,0.543,0.544,0.546,0.547,0.548,0.549,0.55,0.551,0.552,0.553,0.554,0.555,0.556,0.557,0.557,0.558,0.558,0.558,0.558,0.558,0.558,0.558,0.558,0.557,0.557,0.557,0.556,0.555,0.555,0.554,0.553,0.552,0.552,0.551,0.551,0.551,0.551,0.551,0.551,0.552,0.553,0.555,0.556,0.559,0.562,0.565,0.569,0.571,0.573,0.575,0.577,0.578,0.58,0.581,0.583,0.584,0.585,0.586,0.588,0.589,0.59,0.591,0.593,0.594,0.596,0.597,0.599,0.601,0.602,0.604,0.605,0.607,0.609,0.611,0.613,0.615,0.617,0.62,0.623,0.625,0.628,0.631,0.633,0.636,0.638,0.64,0.641,0.642,0.644,0.646,0.65,0.652,0.656,0.659,0.662,0.665,0.669,0.673,0.677,0.68,0.683,0.686,0.689,0.691,0.694,0.696,0.699,0.702,0.706,0.708,0.711,0.715,0.718,0.72,0.723,0.725,0.726,0.727,0.727,0.728,0.73,0.732,0.733,0.735,0.736,0.737,0,0,3.453,3.453,3.453,3.453,3.453,3.414,3.414,3.433,3.433,3.414,3.395,3.395,3.377,3.358,3.358,3.34,3.34,3.322,3.322,3.322,3.322,3.304,3.304,3.269,3.252,3.252,3.252,3.235,0,0,0,0,0,0,0,0,0,0,0,0,0,0,0,0,0,0,0,0,0.775,0.769,0.765,0.762,0.756,0.749,0.744,0.74,0.736,0.733,0.732,0.732,0.731,0.732,0.732,0.732,0.733,0.733,0.733,0.733,0.732,0.732,0.732,0.731,0.731,0.731,0.73,0.73,0.732,0.733,0.734,0.737,0.74,0.742,0.745,0.748,0.751,0.754,0.757,0.758,0.76,0.76,0.761,0.762,0.763,0.763,0.763,0.764,0.764,0.765,0.766,0.767,0.767,0.768,0.769,0.77,0.773,0.775,0.778,0.781,0.785,0.79,0.794,0.799,0.804,0.809,0.815,0.821,0.827,0.832,0.837,0.841,0.844,0.848,0.851,0.854,0.856,0.857,0.858,0.86,0.861,0.863,0.868,0.872,0.875,0.879,0.884,0.888,0.893,0.897,0.898,0.898,0.896,0.892,0.886,0.879,0.872,0.862,0.852,0.844,0.838,0.834,0.83,0.827,0.824,0.821,0.818,0.816,0.814,0.812,0.811,0.811,0.81,0.809,0.809,0.809,0.809,0.809,0.809,0.809,0.809,0.809,0.81,0.812,0.814,0.814,0.816,0.816,0.817,0.819,0.821,0.821,0,2.149,2.141,2.134,2.127,2.119,2.105,2.09,2.083,2.076,2.062,2.055,2.049,2.035,2.028,2.015,2.008,1.995,1.982,1.97,1.963,1.963,1.957,1.957,1.963,1.976,1.982,2.002,2.015,2.035,2.049,2.055,2.062,2.076,2.076,2.083,2.083
0,0,0,0,0,0,0,0,0,0,0,0,0,0,0,0,0,0,0,0,0,0,0,0,0,0,0,0,0,0,0,3.377,3.322,0,0,0,3.104,3.058,3.013,2.955,2.899,2.845,2.793,2.731,2.672,2.626,2.593,2.561,2.55,2.54,2.54,2.55,2.55,2.561,2.561,2.571,2.582,2.571,2.582,2.582,2.593,2.604,2.615,2.626,2.638,2.649,2.66,2.672,2.684,2.684,2.684,2.695,2.707,2.719,2.719,2.731,2.744,2.756,2.756,2.756,2.756,2.744,2.744,2.744,2.744,2.744,2.731,2.731,2.731,2.744,2.756,2.756,2.768,2.781,2.793,2.793,2.806,2.806,2.806,2.806,2.806,2.819,2.832,2.858,2.885,2.913,2.941,2.955,2.983,3.027,3.058,3.073,3.088,3.088,3.073,3.088,3.088,0,0,0,0,0,0,0,0,0,0,0,0,0,0,0,0,0,0,0,0,0,0,0,0,0,0,0,0,0,0,0,0,0,0,0,0,0.458,0.458,0.457,0.457,0.457,0.457,0.457,0.457,0.457,0.457,0.457,0.457,0.457,0.457,0.457,0.457,0.457,0.457,0.458,0.458,0.458,0.459,0.46,0.46,0.461,0.462,0.462,0.463,0.463,0.464,0.465,0.466,0.467,0.468,0.469,0.47,0.471,0.472,0.473,0.474,0.474,0.475,0.475,0.476,0.476,0.476,0.477,0.478,0.478,0.479,0.48,0.481,0.482,0.483,0.484,0.485,0.486,0.487,0.488,0.489,0.49,0.49,0.491,0.492,0.492,0.492,0.492,0.492,0.492,0.491,0.49,0.489,0.489,0.488,0.487,0.487,0.486,0.485,0.485,0.485,0.485,0.485,0.485,0.485,0.485,0.485,0.485,0.486,0.486,0.487,0.487,0.488,0.489,0.49,0.491,0.492,0.493,0.495,0.496,0.498,0.499,0.501,0.503,0.504,0.505,0.506,0.507,0.508,0.508,0.509,0.51,0.51,0.512,0.513,0.513,0.515,0.516,0.517,0.518,0.52,0.522,0.523,0.525,0.526,0.528,0.529,0.531,0.533,0.534,0.534,0.536,0.537,0.539,0.54,0.541,0.542,0.544,0.545,0.546,0.548,0.549,0.55,0.551,0.552,0.554,0.554,0.555,0.556,0.557,0.558,0.558,0.558,0.559,0.559,0.559,0.559,0.559,0.559,0.558,0.558,0.558,0.557,0.556,0.556,0.555,0.555,0.554,0.553,0.553,0.552,0.552,0.552,0.552,0.552,0.553,0.553,0.554,0.556,0.558,0.561,0.564,0.567,0.571,0.573,0.575,0.577,0.579,0.58,0.582,0.584,0.584,0.586,0.587,0.588,0.589,0.59,0.591,0.593,0.594,0.595,0.597,0.598,0.6,0.602,0.603,0.605,0.606,0.608,0.61,0.611,0.613,0.615,0.617,0.62,0.623,0.626,0.629,0.632,0.634,0.638,0.64,0.641,0.643,0.644,0.646,0.648,0.652,0.655,0.659,0.662,0.666,0.669,0.672,0.677,0.681,0.684,0.687,0.69,0.692,0.694,0.697,0.699,0.701,0.704,0.707,0.71,0.713,0.716,0.719,0.722,0.724,0.726,0.726,0.727,0.728,0.729,0.731,0.732,0.735,0.735,0.737,0.738,0.74,0,0,3.453,3.453,3.453,3.453,3.414,3.414,3.414,3.433,3.414,3.395,3.395,3.377,3.377,3.358,3.358,3.34,3.34,3.322,3.322,3.322,3.304,3.286,3.269,3.252,3.235,3.218,3.218,3.201,0,0,0,0,0,0,0,0,0,0,0,0,0,0,0,0,0,0,0,0.774,0.769,0.764,0.761,0.755,0.749,0.744,0.74,0.737,0.734,0.732,0.732,0.732,0.733,0.733,0.734,0.734,0.735,0.735,0.735,0.734,0.734,0.732,0.732,0.732,0.732,0.732,0.732,0.732,0.734,0.736,0.74,0.742,0.744,0.747,0.749,0.751,0.755,0.756,0.758,0.759,0.76,0.761,0.762,0.764,0.764,0.765,0.765,0.767,0.767,0.768,0.769,0.769,0.769,0.77,0.771,0.774,0.776,0.779,0.782,0.787,0.791,0.796,0.801,0.805,0.811,0.816,0.823,0.828,0.835,0.84,0.844,0.847,0.851,0.854,0.856,0.857,0.86,0.86,0.861,0.862,0.866,0.869,0.874,0.878,0.882,0.886,0.891,0.895,0.898,0.9,0.9,0.897,0.891,0.886,0.879,0.87,0.862,0.851,0.844,0.838,0.834,0.829,0.826,0.824,0.821,0.818,0.816,0.813,0.812,0.811,0.81,0.81,0.81,0.809,0.809,0.809,0.809,0.81,0.81,0.81,0.811,0.812,0.813,0.815,0.816,0.817,0.817,0.818,0.821,0.822,0,0,2.156,2.141,2.134,2.134,2.127,2.112,2.105,2.09,2.083,2.076,2.069,2.062,2.055,2.042,2.035,2.022,2.015,2.002,1.989,1.976,1.976,1.976,1.97,1.976,1.989,1.995,2.015,2.028,2.042,2.049,2.062,2.069,2.076,2.076,2.083,2.083
0,0,0,0,0,0,0,0,0,0,0,0,0,0,0,0,0,0,0,0,0,0,0,0,0,0,0,0,0,0,0,0,0,0,0,0,0,3.058,3.013,2.969,2.913,2.858,2.806,2.744,2.684,2.638,2.604,2.571,2.55,2.54,2.54,2.54,2.55,2.55,2.55,2.561,2.561,2.561,2.561,2.571,2.582,2.593,2.604,2.615,2.626,2.649,2.66,2.66,2.672,2.684,2.684,2.695,2.707,2.719,2.719,2.731,2.731,2.744,2.756,2.756,2.744,2.744,2.744,2.731,2.731,2.731,2.731,2.731,2.731,2.744,2.756,2.756,2.781,2.781,2.793,2.793,2.806,2.806,2.806,2.806,2.806,2.806,2.832,2.845,2.872,2.899,2.926,2.955,2.983,3.013,3.058,3.073,3.088,3.088,3.088,3.104,3.104,0,0,0,0,0,0,0,0,0,0,0,0,0,0,0,0,0,0,0,0,0,0,0,0,0,0,0,0,0,0,0,0,0,0,0,0,0,0.458,0.458,0.458,0.458,0.458,0.457,0.457,0.457,0.457,0.457,0.457,0.457,0.457,0.457,0.458,0.458,0.458,0.458,0.459,0.459,0.46,0.46,0.461,0.462,0.462,0.463,0.463,0.464,0.465,0.466,0.467,0.468,0.469,0.47,0.471,0.472,0.473,0.474,0.474,0.475,0.475,0.476,0.476,0.476,0.477,0.477,0.478,0.478,0.479,0.48,0.481,0.482,0.483,0.484,0.485,0.487,0.487,0.488,0.489,0.49,0.491,0.492,0.492,0.492,0.493,0.493,0.492,0.492,0.491,0.49,0.49,0.489,0.488,0.488,0.487,0.487,0.486,0.486,0.486,0.485,0.485,0.485,0.485,0.485,0.486,0.486,0.487,0.487,0.488,0.488,0.489,0.49,0.491,0.492,0.494,0.495,0.496,0.498,0.5,0.501,0.503,0.504,0.506,0.507,0.508,0.508,0.509,0.51,0.51,0.51,0.511,0.512,0.513,0.515,0.516,0.517,0.518,0.519,0.521,0.523,0.524,0.526,0.527,0.528,0.53,0.532,0.533,0.535,0.536,0.537,0.538,0.54,0.541,0.541,0.543,0.544,0.545,0.547,0.548,0.549,0.551,0.552,0.553,0.554,0.555,0.556,0.557,0.558,0.558,0.559,0.559,0.56,0.56,0.56,0.56,0.56,0.56,0.559,0.559,0.558,0.558,0.557,0.557,0.556,0.555,0.555,0.554,0.554,0.553,0.553,0.553,0.553,0.554,0.554,0.555,0.556,0.558,0.559,0.562,0.566,0.569,0.572,0.575,0.577,0.579,0.581,0.583,0.584,0.585,0.586,0.588,0.589,0.589,0.59,0.591,0.592,0.594,0.595,0.596,0.598,0.599,0.601,0.603,0.604,0.605,0.607,0.608,0.61,0.612,0.613,0.615,0.618,0.62,0.624,0.628,0.63,0.634,0.636,0.64,0.642,0.644,0.645,0.647,0.649,0.652,0.655,0.659,0.664,0.667,0.671,0.674,0.678,0.681,0.685,0.688,0.691,0.694,0.695,0.698,0.7,0.702,0.704,0.706,0.709,0.712,0.715,0.717,0.72,0.723,0.725,0.726,0.727,0.728,0.729,0.73,0.732,0.734,0.736,0.737,0.738,0.739,0.74,0,0,3.453,3.453,3.453,3.453,3.414,3.395,3.414,3.414,3.414,3.414,3.395,3.377,3.377,3.377,3.377,3.358,3.34,3.34,3.34,3.34,3.322,3.304,3.269,3.252,3.252,3.235,3.218,3.201,0,0,0,0,0,0,0,0,0,0,0,0,0,0,0,0,0,0,0,0.773,0.767,0.763,0.758,0.754,0.749,0.743,0.74,0.737,0.735,0.734,0.733,0.733,0.734,0.735,0.736,0.736,0.737,0.738,0.737,0.736,0.736,0.734,0.733,0.733,0.733,0.732,0.732,0.734,0.736,0.738,0.74,0.744,0.747,0.749,0.75,0.753,0.756,0.758,0.76,0.76,0.762,0.762,0.764,0.766,0.767,0.768,0.768,0.769,0.77,0.771,0.772,0.771,0.772,0.772,0.774,0.776,0.778,0.781,0.785,0.789,0.793,0.797,0.802,0.807,0.812,0.818,0.825,0.83,0.837,0.842,0.845,0.849,0.852,0.855,0.857,0.86,0.861,0.861,0.862,0.864,0.867,0.87,0.875,0.879,0.883,0.887,0.892,0.896,0.898,0.901,0.901,0.896,0.892,0.887,0.879,0.87,0.861,0.85,0.843,0.837,0.833,0.829,0.826,0.824,0.821,0.818,0.815,0.813,0.812,0.811,0.81,0.809,0.809,0.809,0.809,0.809,0.81,0.81,0.811,0.811,0.812,0.813,0.815,0.817,0.817,0.818,0.819,0.821,0.822,0.823,0,0,2.156,2.149,2.141,2.134,2.134,2.119,2.112,2.105,2.097,2.09,2.083,2.076,2.069,2.062,2.055,2.049,2.035,2.022,2.008,2.002,2.002,1.995,1.995,1.995,2.002,2.015,2.028,2.042,2.049,2.062,2.069,2.076,2.076,2.076,2.083,2.083
0,0,0,0,0,0,0,0,0,0,0,0,0,0,0,0,0,0,0,0,0,0,0,0,0,0,0,0,0,0,0,0,0,0,0,0,0,3.042,3.013,2.969,2.926,2.872,2.819,2.768,2.695,2.649,2.615,2.582,2.55,2.54,2.54,2.54,2.54,2.55,2.55,2.54,2.55,2.55,2.55,2.561,2.561,2.571,2.593,2.604,2.626,2.638,2.649,2.66,2.672,2.684,2.684,2.695,2.707,2.707,2.719,2.731,2.744,2.744,2.756,2.756,2.756,2.744,2.744,2.744,2.744,2.744,2.731,2.731,2.744,2.756,2.756,2.768,2.781,2.793,2.793,2.806,2.819,2.819,2.819,2.806,2.806,2.806,2.819,2.832,2.858,2.885,2.913,2.955,2.983,3.013,3.042,3.073,3.088,3.088,3.104,3.104,0,0,0,0,0,0,0,0,0,0,0,0,0,0,0,0,0,0,0,0,0,0,0,0,0,0,0,0,0,0,0,0,0,0,0,0,0,0.459,0.459,0.459,0.458,0.458,0.458,0.458,0.458,0.458,0.458,0.458,0.458,0.458,0.458,0.458,0.458,0.458,0.459,0.459,0.46,0.46,0.461,0.461,0.462,0.462,0.463,0.463,0.464,0.465,0.465,0.466,0.467,0.468,0.469,0.471,0.472,0.472,0.473,0.474,0.475,0.475,0.476,0.476,0.476,0.476,0.477,0.478,0.478,0.479,0.48,0.481,0.482,0.483,0.484,0.485,0.486,0.487,0.488,0.489,0.49,0.49,0.491,0.492,0.492,0.493,0.493,0.493,0.493,0.492,0.492,0.491,0.49,0.49,0.489,0.488,0.488,0.487,0.487,0.487,0.486,0.486,0.486,0.486,0.486,0.486,0.487,0.487,0.487,0.488,0.489,0.489,0.49,0.491,0.492,0.494,0.495,0.496,0.498,0.5,0.502,0.503,0.505,0.506,0.507,0.509,0.509,0.51,0.51,0.511,0.512,0.512,0.513,0.514,0.515,0.516,0.517,0.518,0.519,0.52,0.521,0.523,0.525,0.526,0.528,0.529,0.531,0.533,0.535,0.536,0.537,0.538,0.539,0.541,0.541,0.542,0.543,0.545,0.546,0.547,0.548,0.55,0.551,0.553,0.554,0.555,0.556,0.557,0.558,0.559,0.56,0.56,0.56,0.561,0.561,0.561,0.561,0.561,0.561,0.56,0.56,0.559,0.558,0.558,0.557,0.557,0.556,0.555,0.555,0.554,0.554,0.554,0.554,0.554,0.555,0.556,0.557,0.558,0.56,0.561,0.565,0.568,0.572,0.574,0.577,0.579,0.581,0.583,0.584,0.585,0.587,0.588,0.589,0.59,0.591,0.591,0.593,0.594,0.595,0.596,0.597,0.598,0.6,0.601,0.603,0.605,0.606,0.608,0.609,0.611,0.612,0.614,0.616,0.618,0.622,0.625,0.628,0.632,0.636,0.638,0.642,0.644,0.646,0.648,0.65,0.653,0.656,0.66,0.664,0.669,0.673,0.676,0.679,0.683,0.686,0.691,0.693,0.695,0.697,0.698,0.701,0.702,0.705,0.706,0.709,0.711,0.715,0.716,0.719,0.721,0.724,0.726,0.727,0.728,0.729,0.73,0.732,0.733,0.735,0.737,0.737,0.739,0.74,0.741,0,3.472,3.472,3.472,3.453,3.453,3.414,3.395,3.414,3.414,3.414,3.414,3.395,3.395,3.377,3.377,3.377,3.377,3.358,3.358,3.358,3.34,3.34,3.322,3.304,3.269,3.269,3.252,3.235,3.218,0,0,0,0,0,0,0,0,0,0,0,0,0,0,0,0,0,0,0,0.772,0.765,0.761,0.756,0.751,0.747,0.743,0.74,0.737,0.736,0.735,0.734,0.735,0.736,0.737,0.737,0.738,0.739,0.739,0.738,0.738,0.738,0.735,0.735,0.735,0.735,0.735,0.735,0.736,0.738,0.74,0.743,0.747,0.748,0.749,0.751,0.755,0.758,0.759,0.76,0.762,0.763,0.765,0.766,0.768,0.769,0.77,0.772,0.773,0.774,0.775,0.775,0.775,0.775,0.776,0.777,0.779,0.781,0.784,0.787,0.791,0.795,0.798,0.802,0.808,0.814,0.821,0.827,0.833,0.84,0.845,0.848,0.851,0.855,0.857,0.86,0.861,0.862,0.863,0.864,0.867,0.869,0.873,0.877,0.882,0.886,0.889,0.893,0.897,0.9,0.902,0.901,0.896,0.893,0.887,0.88,0.869,0.858,0.849,0.841,0.837,0.833,0.829,0.825,0.824,0.821,0.818,0.816,0.814,0.812,0.811,0.81,0.81,0.809,0.809,0.809,0.809,0.81,0.81,0.811,0.811,0.813,0.814,0.816,0.817,0.818,0.819,0.821,0.821,0.823,0.823,0,0,2.149,2.141,2.141,2.134,2.134,2.127,2.119,2.112,2.112,2.105,2.097,2.097,2.09,2.09,2.083,2.076,2.062,2.049,2.035,2.035,2.028,2.015,2.015,2.015,2.022,2.035,2.042,2.055,2.062,2.069,2.076,2.083,2.083,2.083,2.083,2.083
0,0,0,0,0,0,0,0,0,0,0,0,0,0,0,0,0,0,0,0,0,0,0,0,0,0,0,0,0.777,0.779,0.779,0.781,0.782,0,0,0,0,3.027,2.998,2.983,2.941,2.899,2.845,2.781,2.719,2.672,2.626,2.593,2.561,2.55,2.54,2.54,2.54,2.54,2.54,2.54,2.54,2.54,2.54,2.55,2.55,2.561,2.582,2.604,2.615,2.626,2.638,2.649,2.672,2.672,2.684,2.695,2.707,2.707,2.719,2.731,2.731,2.744,2.744,2.744,2.744,2.744,2.744,2.744,2.744,2.744,2.744,2.744,2.744,2.756,2.768,2.781,2.781,2.793,2.806,2.819,2.819,2.819,2.819,2.819,2.806,2.819,2.819,2.832,2.845,2.872,2.913,2.941,2.983,3.013,3.042,3.073,3.104,3.104,3.104,3.12,0,0,0,0,0,0,0,0,0,0,0,0,0,0,0,0,0,0,0,0,0,0,0,0,0,0,0,0,0,0,0,0,0,0,0,0,0,0.46,0.459,0.459,0.459,0.459,0.458,0.458,0.458,0.458,0.458,0.458,0.458,0.458,0.458,0.458,0.459,0.459,0.459,0.46,0.46,0.461,0.461,0.461,0.462,0.462,0.463,0.463,0.464,0.465,0.466,0.467,0.468,0.469,0.47,0.471,0.472,0.473,0.474,0.475,0.475,0.475,0.476,0.476,0.476,0.477,0.478,0.478,0.478,0.479,0.48,0.481,0.482,0.483,0.484,0.485,0.486,0.487,0.488,0.489,0.49,0.491,0.492,0.492,0.493,0.494,0.494,0.494,0.494,0.493,0.493,0.492,0.491,0.49,0.49,0.489,0.488,0.488,0.487,0.487,0.487,0.487,0.487,0.486,0.486,0.487,0.487,0.487,0.488,0.489,0.489,0.49,0.491,0.492,0.494,0.495,0.496,0.497,0.499,0.501,0.503,0.505,0.506,0.507,0.509,0.51,0.511,0.511,0.512,0.512,0.513,0.513,0.514,0.515,0.516,0.517,0.518,0.519,0.52,0.521,0.523,0.524,0.526,0.528,0.529,0.531,0.532,0.534,0.536,0.537,0.538,0.539,0.541,0.541,0.542,0.543,0.544,0.545,0.547,0.548,0.549,0.55,0.552,0.553,0.555,0.556,0.557,0.558,0.559,0.56,0.56,0.561,0.561,0.562,0.562,0.562,0.562,0.562,0.562,0.561,0.561,0.56,0.559,0.558,0.558,0.557,0.557,0.556,0.556,0.555,0.555,0.555,0.555,0.555,0.556,0.557,0.558,0.56,0.562,0.564,0.567,0.57,0.573,0.576,0.578,0.58,0.583,0.584,0.585,0.587,0.588,0.589,0.59,0.591,0.592,0.593,0.594,0.594,0.596,0.597,0.598,0.6,0.601,0.603,0.604,0.606,0.607,0.608,0.61,0.612,0.613,0.615,0.617,0.62,0.623,0.627,0.631,0.634,0.638,0.641,0.644,0.646,0.648,0.65,0.652,0.656,0.659,0.664,0.669,0.674,0.678,0.681,0.684,0.687,0.691,0.694,0.696,0.698,0.7,0.702,0.703,0.706,0.707,0.71,0.711,0.714,0.716,0.718,0.72,0.723,0.725,0.727,0.728,0.729,0.731,0.732,0.732,0.734,0.736,0.737,0.739,0.74,0.74,0.741,0,3.492,3.472,3.453,3.453,3.453,3.414,3.414,3.433,3.433,3.433,3.414,3.414,3.414,3.395,3.395,3.395,3.377,3.377,3.377,3.358,3.358,3.34,3.34,3.322,3.286,3.286,3.269,3.252,3.235,3.201,3.184,0,0,0,0,0,0,0,0,0,0,0,0,0,0,0,0,0,0,0,0.758,0.754,0.75,0.746,0.743,0.74,0.737,0.736,0.735,0.735,0.736,0.737,0.738,0.739,0.739,0.74,0.74,0.74,0.74,0.739,0.737,0.736,0.737,0.737,0.737,0.737,0.739,0.74,0.742,0.745,0.748,0.749,0.751,0.753,0.756,0.759,0.761,0.762,0.762,0.764,0.766,0.768,0.77,0.772,0.772,0.774,0.776,0.776,0.778,0.778,0.778,0.779,0.779,0.78,0.782,0.784,0.786,0.79,0.794,0.797,0.801,0.805,0.81,0.816,0.823,0.83,0.836,0.843,0.848,0.85,0.854,0.857,0.858,0.861,0.862,0.863,0.864,0.866,0.868,0.87,0.875,0.879,0.883,0.887,0.892,0.895,0.9,0.902,0.902,0.901,0.898,0.893,0.887,0.878,0.868,0.856,0.848,0.841,0.837,0.833,0.829,0.827,0.824,0.822,0.819,0.816,0.814,0.813,0.812,0.811,0.81,0.81,0.81,0.809,0.81,0.811,0.811,0.812,0.813,0.814,0.816,0.817,0.819,0.819,0.821,0.822,0.822,0.823,0,0,0,0,0,2.141,2.134,2.134,2.134,2.127,2.127,2.119,2.119,2.119,2.112,2.112,2.112,2.105,2.105,2.09,2.076,2.069,2.062,2.055,2.049,2.049,2.049,2.049,2.055,2.069,2.076,2.083,2.083,2.083,2.09,2.09,2.09,2.09,2.09
0,0,0,0,0,0,0,0,0,0,0,0,0,0,0,0,0,0,0,0,0,0,0,0,0,0,0,0.775,0.775,0.778,0.779,0.781,0.782,0.784,0,0,0,3.042,3.013,2.998,2.955,2.913,2.858,2.793,2.744,2.684,2.638,2.604,2.571,2.55,2.55,2.54,2.54,2.54,2.54,2.54,2.54,2.529,2.529,2.54,2.55,2.561,2.571,2.593,2.604,2.626,2.638,2.649,2.672,2.672,2.684,2.695,2.707,2.707,2.719,2.719,2.731,2.744,2.744,2.744,2.744,2.744,2.744,2.744,2.744,2.744,2.744,2.744,2.756,2.756,2.768,2.781,2.793,2.806,2.819,2.832,2.832,2.845,2.832,2.832,2.819,2.819,2.819,2.832,2.845,2.872,2.899,2.941,2.983,3.013,3.058,3.073,3.12,3.104,3.12,3.12,3.12,0,0,0,0,0,0,0,0,0,0,0,0,0,0,0,0,0,0,0,0,0,0,0,0,0,0,0,0,0,0,0,0,0,0,0,0,0.46,0.46,0.46,0.46,0.459,0.459,0.459,0.459,0.459,0.458,0.459,0.459,0.459,0.459,0.459,0.459,0.459,0.46,0.46,0.461,0.461,0.461,0.462,0.462,0.463,0.463,0.463,0.464,0.465,0.466,0.467,0.468,0.469,0.469,0.471,0.472,0.472,0.473,0.474,0.475,0.475,0.476,0.476,0.476,0.477,0.478,0.479,0.479,0.48,0.481,0.482,0.483,0.484,0.485,0.486,0.487,0.488,0.489,0.49,0.491,0.492,0.493,0.494,0.494,0.494,0.495,0.495,0.494,0.494,0.494,0.493,0.492,0.491,0.49,0.49,0.489,0.489,0.489,0.488,0.488,0.487,0.487,0.487,0.487,0.487,0.487,0.488,0.489,0.49,0.49,0.491,0.492,0.494,0.495,0.496,0.497,0.498,0.5,0.502,0.504,0.506,0.507,0.509,0.51,0.511,0.512,0.513,0.513,0.513,0.514,0.514,0.515,0.516,0.517,0.518,0.519,0.52,0.522,0.523,0.524,0.526,0.527,0.528,0.53,0.531,0.533,0.535,0.536,0.538,0.539,0.54,0.541,0.542,0.542,0.544,0.545,0.546,0.547,0.548,0.549,0.551,0.552,0.554,0.555,0.556,0.558,0.559,0.56,0.561,0.561,0.562,0.562,0.563,0.563,0.563,0.563,0.563,0.563,0.562,0.562,0.561,0.56,0.559,0.559,0.558,0.557,0.557,0.556,0.556,0.556,0.556,0.556,0.557,0.558,0.559,0.56,0.562,0.564,0.566,0.569,0.572,0.575,0.577,0.58,0.582,0.584,0.585,0.586,0.588,0.589,0.59,0.591,0.592,0.593,0.594,0.594,0.596,0.597,0.598,0.599,0.601,0.602,0.604,0.605,0.607,0.608,0.609,0.611,0.612,0.615,0.616,0.618,0.621,0.625,0.629,0.633,0.636,0.64,0.643,0.646,0.648,0.65,0.652,0.654,0.659,0.663,0.667,0.672,0.678,0.681,0.685,0.687,0.691,0.694,0.697,0.699,0.701,0.702,0.704,0.706,0.708,0.71,0.711,0.714,0.715,0.718,0.72,0.721,0.724,0.726,0.728,0.729,0.731,0.732,0.732,0.734,0.736,0.738,0.739,0.74,0.74,0.74,0,0,3.492,3.492,3.472,3.472,3.472,3.414,3.414,3.433,3.453,3.433,3.433,3.433,3.414,3.414,3.414,3.414,3.395,3.395,3.395,3.377,3.377,3.358,3.34,3.322,3.304,3.304,3.269,3.269,3.252,3.218,3.201,3.184,0,0,0,0,0,0,0,0,0,0,0,0,0,0,0,0,0,0,0,0,0.748,0.744,0.742,0.74,0.737,0.736,0.735,0.735,0.736,0.738,0.739,0.74,0.74,0.74,0.74,0.741,0.74,0.74,0.739,0.739,0.739,0.739,0.74,0.74,0.741,0.743,0.744,0.747,0.75,0.751,0.753,0.756,0.758,0.76,0.762,0.763,0.764,0.765,0.768,0.77,0.771,0.773,0.774,0.776,0.778,0.779,0.78,0.781,0.781,0.782,0.783,0.784,0.786,0.788,0.79,0.793,0.796,0.799,0.803,0.808,0.813,0.819,0,0.833,0.838,0.845,0.851,0.854,0.856,0.858,0.861,0.862,0.863,0.864,0.866,0.867,0.869,0.873,0.877,0.88,0.886,0.889,0.893,0.897,0.901,0.904,0.905,0.902,0.898,0.893,0.887,0.878,0.867,0.855,0.847,0.841,0.837,0.834,0.83,0.827,0.825,0.822,0.819,0.817,0.815,0.814,0.813,0.812,0.811,0.811,0.811,0.811,0.811,0.812,0.813,0.814,0.815,0.816,0.818,0.819,0.821,0.822,0.822,0.823,0.823,0,0,0,0,0,0,0,2.149,2.149,2.149,2.141,2.141,2.141,2.149,2.141,2.141,2.141,2.134,2.134,2.134,2.127,2.119,2.112,2.105,2.105,2.09,2.09,2.09,2.09,2.09,2.097,2.105,2.097,2.097,2.105,2.097,2.097,2.097,2.09,2.09
0,0,0,0,0,0,0,0,0,0,0,0,0,0,0,0,0,0,0,0,0,0,0,0,0,0,0.773,0.774,0.775,0.777,0.779,0.781,0.783,0.784,0.784,0,0,3.042,3.027,2.998,2.969,2.926,2.885,2.819,2.756,2.695,2.66,2.615,2.582,2.561,2.55,2.54,2.54,2.54,2.54,2.54,2.529,2.529,2.529,2.54,2.55,2.561,2.571,2.582,2.604,2.615,2.638,2.649,2.672,2.672,2.684,2.695,2.707,2.707,2.719,2.719,2.731,2.731,2.744,2.744,2.731,2.731,2.731,2.731,2.731,2.744,2.744,2.744,2.756,2.768,2.781,2.793,2.806,2.819,2.832,2.832,2.845,2.845,2.845,2.845,2.832,2.819,2.832,2.832,2.858,2.885,2.913,2.941,2.983,3.013,3.058,3.088,3.12,3.12,3.12,3.136,3.12,0,0,0,0,0,0,0,0,0,0,0,0,0,0,0,0,0,0,0,0,0,0,0,0,0,0,0,0,0,0,0,0,0,0,0,0,0.461,0.46,0.46,0.46,0.459,0.459,0.459,0.459,0.459,0.459,0.459,0.459,0.459,0.459,0.459,0.46,0.46,0.46,0.461,0.461,0.461,0.462,0.462,0.463,0.463,0.463,0.464,0.464,0.465,0.466,0.466,0.467,0.468,0.469,0.47,0.471,0.472,0.473,0.474,0.475,0.475,0.476,0.476,0.477,0.478,0.478,0.479,0.48,0.481,0.482,0.483,0.484,0.485,0.485,0.487,0.488,0.489,0.49,0.491,0.492,0.493,0.494,0.494,0.495,0.496,0.496,0.496,0.496,0.495,0.494,0.494,0.493,0.492,0.492,0.491,0.49,0.489,0.489,0.489,0.488,0.488,0.487,0.487,0.487,0.487,0.488,0.489,0.489,0.49,0.491,0.492,0.493,0.494,0.496,0.497,0.498,0.499,0.5,0.503,0.505,0.507,0.508,0.51,0.511,0.512,0.513,0.513,0.514,0.514,0.515,0.516,0.516,0.517,0.519,0.519,0.521,0.522,0.523,0.524,0.526,0.527,0.528,0.529,0.531,0.532,0.533,0.535,0.537,0.538,0.539,0.541,0.542,0.543,0.543,0.544,0.545,0.546,0.547,0.549,0.55,0.551,0.552,0.554,0.555,0.557,0.558,0.559,0.56,0.561,0.562,0.563,0.563,0.564,0.564,0.564,0.564,0.564,0.563,0.563,0.562,0.562,0.561,0.561,0.56,0.559,0.558,0.558,0.557,0.557,0.557,0.557,0.557,0.558,0.56,0.561,0.562,0.564,0.566,0.569,0.571,0.573,0.576,0.578,0.58,0.583,0.585,0.586,0.588,0.589,0.59,0.591,0.592,0.593,0.594,0.594,0.596,0.596,0.597,0.599,0.6,0.601,0.603,0.604,0.606,0.607,0.609,0.61,0.612,0.613,0.616,0.618,0.62,0.623,0.626,0.63,0.635,0.638,0.642,0.645,0.648,0.65,0.652,0.654,0.657,0.661,0.665,0.67,0.675,0.681,0.684,0.688,0.691,0.694,0.697,0.699,0.702,0.703,0.705,0.706,0.708,0.71,0.712,0.714,0.715,0.718,0.72,0.721,0.723,0.725,0.727,0.728,0.73,0.732,0.732,0.734,0.735,0.738,0.739,0.74,0.74,0.74,0.74,0.741,0,3.512,3.512,3.492,3.472,3.472,3.414,3.433,3.433,3.453,3.453,3.433,3.433,3.433,3.433,3.433,3.414,3.414,3.395,3.395,3.395,3.377,3.377,3.358,3.34,3.304,3.304,3.286,3.269,3.252,3.218,3.201,3.184,0,0,0,0,0,0,0,0,0,0,0,0,0,0,0,0,0,0,0,0,0,0.742,0.74,0.739,0.738,0.737,0.736,0.736,0.737,0.737,0.739,0.74,0.74,0.74,0.74,0.74,0.74,0.74,0.74,0.74,0.74,0.741,0.742,0.743,0.744,0.745,0.747,0.749,0.752,0.754,0.755,0.757,0.76,0.762,0.762,0.764,0.765,0.768,0.769,0.771,0.773,0.775,0.776,0.778,0.78,0.781,0.783,0.784,0.785,0.786,0.786,0.788,0.789,0.791,0.793,0.796,0.799,0.802,0.805,0.81,0.815,0,0,0,0.842,0.849,0.854,0.856,0.858,0.86,0.861,0.863,0.864,0.866,0.867,0.869,0.87,0.873,0.878,0.883,0.887,0.891,0.895,0.9,0.902,0.904,0.906,0.904,0.898,0.893,0.887,0.878,0.866,0.854,0.847,0.842,0.837,0.834,0.83,0.828,0.826,0.823,0.821,0.818,0.816,0.814,0.813,0.813,0.812,0.812,0.812,0.812,0.812,0.812,0.814,0.815,0.816,0.817,0.819,0.821,0.822,0.822,0.823,0.823,0,0,0,0,0,0,0,0,0,2.164,2.164,2.164,2.172,2.172,2.172,2.172,2.172,2.172,2.164,2.164,2.164,2.156,2.149,2.149,2.141,2.141,2.134,2.127,2.127,2.119,2.119,2.119,2.127,2.119,2.112,2.112,2.105,2.105,2.097,2.097,2.097
0,0,0,0,0,0,0,0,0,0,0,0,0,0,0,0,0,0,0,0,0,0,0,0,0,0,0,0.772,0.773,0.776,0.777,0.78,0.782,0.784,0.785,0,0,0,3.027,3.013,2.983,2.941,2.899,2.845,2.781,2.719,2.672,2.638,2.593,2.582,2.561,2.55,2.54,2.54,2.54,2.54,2.529,2.529,2.529,2.54,2.55,2.561,2.571,2.582,2.604,2.626,2.638,2.649,2.672,2.672,2.684,2.695,2.695,2.707,2.719,2.719,2.719,2.731,2.731,2.731,2.731,2.731,2.731,2.731,2.731,2.731,2.744,2.756,2.768,2.781,2.793,2.806,2.819,2.832,2.845,2.858,2.858,2.858,2.858,2.858,2.845,2.845,2.832,2.832,2.858,2.885,2.913,2.955,2.983,3.027,3.058,3.104,3.136,3.12,3.136,3.136,3.136,0,0,0,0,0,0,0,0,0,0,0,0,0,0,0,0,0,0,0,0,0,0,0,0,0,0,0,0,0,0,0,0,0,0,0,0,0.461,0.46,0.46,0.46,0.46,0.459,0.459,0.459,0.459,0.459,0.459,0.459,0.459,0.459,0.46,0.46,0.46,0.461,0.461,0.461,0.462,0.462,0.462,0.463,0.463,0.463,0.464,0.464,0.465,0.466,0.466,0.467,0.468,0.469,0.47,0.471,0.472,0.473,0.473,0.474,0.475,0.476,0.476,0.477,0.478,0.479,0.48,0.481,0.482,0.482,0.484,0.485,0.486,0.487,0.488,0.489,0.49,0.491,0.492,0.493,0.494,0.495,0.496,0.496,0.497,0.497,0.497,0.497,0.496,0.496,0.495,0.494,0.493,0.492,0.491,0.491,0.49,0.49,0.489,0.489,0.488,0.488,0.488,0.488,0.488,0.488,0.489,0.49,0.491,0.492,0.493,0.494,0.495,0.497,0.498,0.499,0.5,0.502,0.504,0.506,0.508,0.509,0.51,0.512,0.513,0.513,0.514,0.514,0.515,0.516,0.516,0.517,0.518,0.519,0.52,0.522,0.523,0.524,0.525,0.526,0.527,0.528,0.529,0.531,0.532,0.533,0.535,0.537,0.538,0.54,0.541,0.542,0.543,0.544,0.545,0.546,0.547,0.548,0.549,0.55,0.551,0.553,0.555,0.556,0.557,0.558,0.56,0.561,0.562,0.563,0.564,0.564,0.565,0.565,0.565,0.565,0.565,0.565,0.564,0.563,0.563,0.562,0.561,0.561,0.56,0.559,0.559,0.558,0.558,0.558,0.558,0.559,0.56,0.561,0.562,0.564,0.566,0.568,0.57,0.572,0.574,0.577,0.579,0.581,0.583,0.585,0.586,0.588,0.59,0.591,0.592,0.593,0.594,0.594,0.596,0.597,0.597,0.598,0.6,0.601,0.603,0.604,0.605,0.607,0.608,0.61,0.611,0.613,0.615,0.616,0.619,0.621,0.624,0.628,0.632,0.636,0.64,0.644,0.646,0.648,0.651,0.652,0.654,0.658,0.662,0.667,0.672,0.678,0.683,0.687,0.691,0.693,0.696,0.698,0.701,0.702,0.704,0.706,0.709,0.71,0.712,0.714,0.715,0.717,0.72,0.721,0.722,0.724,0.726,0.728,0.729,0.731,0.732,0.733,0.735,0.737,0.739,0.74,0.74,0.74,0.74,0.74,0.74,0,3.532,3.512,3.512,3.512,3.492,3.453,3.433,3.453,3.453,3.453,3.453,3.433,3.433,3.433,3.433,3.433,3.414,3.414,3.395,3.395,3.395,3.377,3.358,3.34,3.322,3.304,3.304,3.269,3.252,3.235,3.218,0,0,0,0,0,0,0,0,0,0,0,0,0,0,0,0,0,0,0,0,0,0,0.74,0.74,0.738,0.737,0.737,0.736,0.736,0.737,0.738,0.738,0.739,0.74,0.74,0.74,0.74,0.74,0.74,0.74,0.74,0.741,0.743,0.744,0.745,0.747,0.748,0.749,0.751,0.753,0.754,0.757,0.758,0.761,0.762,0.764,0.766,0.767,0.769,0.772,0.773,0.775,0.777,0.778,0.78,0.782,0.784,0.785,0.786,0.787,0.788,0.789,0.791,0.792,0.794,0.797,0.799,0.802,0.804,0.809,0.813,0.818,0,0,0,0.844,0.851,0.856,0.857,0.86,0.861,0.863,0.864,0.866,0.867,0.868,0.87,0.873,0.875,0.879,0.884,0.888,0.892,0.897,0.901,0.904,0.905,0.906,0.905,0.898,0.895,0,0.878,0.867,0.854,0.848,0.842,0.838,0.835,0.832,0.829,0.826,0.824,0.822,0.819,0.817,0.815,0.814,0.814,0.813,0.813,0.813,0.813,0.813,0.813,0.815,0.816,0.817,0.819,0.821,0.822,0.822,0.823,0.823,0.824,0,0,0,0,0,0,0,2.195,2.195,2.195,2.195,2.187,2.195,2.195,2.195,2.195,2.195,2.195,2.195,2.195,2.195,2.195,2.179,2.179,2.179,2.179,2.172,2.164,2.156,2.149,2.141,2.141,2.141,2.127,2.127,2.119,2.112,2.112,2.112,2.105,2.097
0,0,0,0,0,0,0,0,0,0,0,0,0,0,0,0,0,0,0,0,0,0,0,0,0,0,0.767,0.77,0.772,0.774,0.776,0.78,0.782,0.784,0.786,0.788,0,0,3.042,3.027,3.013,2.955,2.913,2.872,2.806,2.744,2.695,2.649,2.615,2.593,2.571,2.55,2.55,2.54,2.54,2.54,2.529,2.529,2.529,2.54,2.55,2.561,2.571,2.582,2.604,2.626,2.638,2.66,2.672,2.684,2.684,2.695,2.707,2.707,2.719,2.719,2.731,2.731,2.731,2.731,2.731,2.731,2.719,2.731,2.744,2.744,2.756,2.756,2.781,2.793,2.806,2.819,2.845,2.845,2.858,2.872,2.872,2.885,2.872,2.872,2.858,2.858,2.845,2.858,2.872,2.899,2.926,2.955,2.998,3.042,3.073,3.104,3.136,3.136,3.136,3.136,3.136,0,0,0,0,0,0,0,0,0,0,0,0,0,0,0,0,0,0,0,0,0,0,0,0,0,0,0,0,0,0,0,0,0,0,0,0.461,0.461,0.46,0.46,0.46,0.46,0.459,0.459,0.459,0.459,0.459,0.459,0.459,0.459,0.46,0.46,0.46,0.461,0.461,0.461,0.462,0.462,0.462,0.463,0.463,0.463,0.463,0.464,0.465,0.465,0.466,0.466,0.467,0.468,0.469,0.47,0.471,0.472,0.472,0.473,0.474,0.475,0.475,0.476,0.477,0.478,0.48,0.481,0.482,0.483,0.484,0.485,0.486,0.487,0.488,0.489,0.49,0.491,0.492,0.493,0.494,0.496,0.496,0.497,0.497,0.498,0.498,0.498,0.498,0.497,0.496,0.496,0.495,0.494,0.493,0.492,0.491,0.491,0.49,0.49,0.489,0.489,0.489,0.488,0.488,0.488,0.489,0.489,0.49,0.492,0.492,0.494,0.494,0.496,0.498,0.499,0.5,0.501,0.503,0.505,0.507,0.508,0.51,0.511,0.512,0.513,0.514,0.514,0.515,0.516,0.516,0.517,0.518,0.519,0.52,0.521,0.523,0.523,0.525,0.526,0.526,0.528,0.528,0.529,0.531,0.532,0.534,0.535,0.537,0.538,0.54,0.541,0.542,0.543,0.544,0.545,0.546,0.547,0.548,0.549,0.55,0.552,0.553,0.555,0.556,0.558,0.559,0.56,0.562,0.563,0.564,0.565,0.565,0.566,0.566,0.566,0.566,0.566,0.565,0.565,0.564,0.564,0.563,0.562,0.562,0.561,0.56,0.56,0.559,0.559,0.559,0.56,0.56,0.561,0.563,0.564,0.565,0.567,0.57,0.571,0.573,0.575,0.578,0.58,0.582,0.584,0.586,0.588,0.589,0.59,0.591,0.593,0.594,0.595,0.596,0.596,0.597,0.598,0.6,0.601,0.603,0.604,0.605,0.607,0.608,0.609,0.61,0.612,0.613,0.615,0.618,0.62,0.622,0.625,0.63,0.634,0.638,0.641,0.644,0.646,0.648,0.651,0.653,0.656,0.659,0.663,0.668,0.673,0.679,0.684,0.689,0.692,0.694,0.697,0.699,0.702,0.703,0.706,0.707,0.71,0.712,0.714,0.716,0.718,0.72,0.721,0.723,0.724,0.726,0.726,0.729,0.73,0.732,0.733,0.735,0.736,0.738,0.74,0.74,0.74,0.74,0.74,0.74,0.74,0,3.532,3.512,3.512,3.512,3.492,3.453,3.453,3.453,3.453,3.453,3.453,3.453,3.453,3.453,3.433,3.433,3.433,3.414,3.414,3.414,3.395,3.377,3.358,3.34,3.34,3.322,3.304,3.286,3.269,3.235,3.218,0,0,0,0,0,0,0,0,0,0,0,0,0,0,0,0,0,0,0,0,0,0,0.739,0.738,0.737,0.737,0.737,0.736,0.736,0.737,0.738,0.739,0.739,0.74,0.74,0.74,0.74,0.74,0.74,0.741,0.742,0.743,0.745,0.747,0.747,0.749,0.749,0.751,0.753,0.755,0.755,0.758,0.76,0.762,0.764,0.765,0.767,0.769,0.77,0.773,0.775,0.777,0.778,0.779,0.781,0.784,0.785,0.786,0.787,0.789,0.79,0.792,0.793,0.795,0.797,0.799,0.802,0.804,0.808,0.811,0.815,0.822,0.828,0.834,0.84,0.847,0.852,0.857,0.86,0.861,0.862,0.863,0.864,0.866,0.867,0.869,0.872,0.874,0.877,0.88,0.886,0.889,0.895,0.898,0.902,0.906,0.906,0.909,0.905,0.901,0.896,0,0.879,0.868,0.857,0.849,0.843,0.84,0.835,0.833,0.829,0.827,0.825,0.822,0.821,0.818,0.816,0.815,0.815,0.814,0.814,0.814,0.814,0.814,0.815,0.816,0.817,0.818,0.821,0.822,0.823,0.823,0.823,0.823,0.824,0,0,0,0,0,0,0,0,2.243,2.235,2.227,2.227,2.227,2.219,2.219,2.227,2.227,2.227,2.219,2.219,2.219,2.219,2.211,2.211,2.211,2.203,2.203,2.187,2.179,2.172,2.164,2.164,2.149,2.141,2.134,2.127,2.119,2.112,2.112,2.105,2.097
0,0,0,0,0,0,0,0,0,0,0,0,0,0,0,0,0,0,0,0,0,0,0,0,0,0.762,0.765,0,0,0.773,0.775,0.779,0.782,0.784,0.786,0.788,0.79,0,0,3.042,3.013,2.969,2.926,2.885,2.832,2.768,2.719,2.672,2.626,2.604,2.582,2.561,2.55,2.55,2.55,2.55,2.54,2.54,2.54,2.55,2.55,2.561,2.571,2.582,2.604,2.626,2.649,2.66,2.684,2.684,2.695,2.695,2.707,2.707,2.719,2.719,2.719,2.719,2.731,2.731,2.719,2.719,2.731,2.731,2.744,2.744,2.768,2.768,2.793,2.806,2.832,2.845,2.845,2.872,2.872,2.885,2.885,2.885,2.885,2.885,2.872,2.858,2.858,2.872,2.885,2.913,2.941,2.969,2.998,3.042,3.073,3.12,3.136,3.152,3.152,3.152,0,0,0,0,0,0,0,0,0,0,0,0,0,0,0,0,0,0,0,0,0,0,0,0,0,0,0,0,0,0,0,0,0,0,0,0,0,0.461,0.461,0.46,0.46,0.46,0.46,0.46,0.459,0.46,0.46,0.46,0.46,0.46,0.46,0.46,0.461,0.461,0.461,0.462,0.462,0.462,0.463,0.463,0.463,0.463,0.464,0.464,0.465,0.465,0.466,0.466,0.467,0.468,0.469,0.469,0.47,0.471,0.472,0.473,0.473,0.475,0.476,0.476,0.478,0.479,0.48,0.481,0.482,0.484,0.485,0.486,0.487,0.488,0.489,0.49,0.491,0.492,0.493,0.494,0.495,0.496,0.497,0.498,0.498,0.499,0.499,0.499,0.499,0.498,0.498,0.497,0.496,0.495,0.494,0.493,0.492,0.491,0.491,0.49,0.489,0.489,0.489,0.489,0.489,0.489,0.489,0.49,0.491,0.492,0.493,0.494,0.496,0.497,0.498,0.5,0.5,0.501,0.503,0.505,0.507,0.508,0.51,0.511,0.512,0.513,0.513,0.514,0.515,0.516,0.517,0.518,0.519,0.52,0.521,0.523,0.523,0.524,0.525,0.526,0.527,0.528,0.528,0.53,0.531,0.533,0.534,0.535,0.537,0.538,0.54,0.541,0.542,0.543,0.544,0.545,0.546,0.547,0.548,0.549,0.551,0.552,0.553,0.555,0.557,0.558,0.559,0.561,0.562,0.564,0.565,0.565,0.566,0.566,0.567,0.567,0.567,0.566,0.566,0.566,0.565,0.565,0.564,0.563,0.563,0.562,0.561,0.561,0.561,0.56,0.561,0.561,0.562,0.563,0.564,0.565,0.567,0.569,0.571,0.572,0.574,0.576,0.578,0.58,0.583,0.584,0.586,0.588,0.59,0.591,0.593,0.593,0.594,0.595,0.596,0.597,0.598,0.599,0.601,0.602,0.604,0.605,0.606,0.608,0.608,0.61,0.611,0.612,0.614,0.616,0.619,0.621,0.623,0.626,0.63,0.634,0.638,0.641,0.644,0.646,0.648,0.651,0.652,0.656,0.659,0.663,0.669,0.675,0.681,0.686,0.69,0.693,0.695,0.698,0.699,0.702,0.704,0.706,0.709,0.711,0.714,0.715,0.718,0.72,0.721,0.723,0.724,0.725,0.726,0.727,0.73,0.731,0.732,0.735,0.736,0.738,0.739,0.74,0.74,0.74,0.74,0.739,0.739,0.739,0,3.532,3.512,3.512,3.492,3.472,3.453,3.453,3.453,3.453,3.453,3.453,3.453,3.453,3.453,3.433,3.433,3.433,3.433,3.414,3.414,3.395,3.395,3.377,3.358,3.34,3.322,3.304,3.304,3.269,3.252,3.235,0,0,0,0,0,0,0,0,0,0,0,0,0,0,0,0,0,0,0,0,0,0,0.738,0.738,0.737,0.738,0.737,0.736,0.737,0.738,0.739,0.739,0.74,0.74,0.74,0.74,0.741,0.741,0.741,0.742,0.743,0.745,0.747,0.749,0.749,0.75,0.752,0.753,0.755,0.757,0.758,0.759,0.761,0.763,0.765,0.767,0.769,0.771,0.773,0.775,0.776,0.777,0.779,0.781,0.782,0.785,0.786,0.787,0.789,0.79,0.792,0.794,0.796,0.798,0.8,0.802,0.805,0.808,0.81,0.814,0.818,0.825,0.83,0.836,0.842,0.849,0.855,0.858,0.86,0.862,0.863,0.864,0.866,0.867,0.868,0.87,0.873,0.875,0.878,0.883,0.887,0.892,0.896,0.901,0.905,0.908,0.909,0.91,0.908,0.904,0.898,0,0.883,0.872,0.86,0.852,0.845,0.84,0.836,0.834,0.83,0.828,0.825,0.823,0.821,0.818,0.817,0.816,0.816,0.815,0.815,0.815,0.815,0.815,0.816,0.817,0.818,0.819,0.822,0.823,0.823,0.824,0.824,0.824,0.825,0,0,0,0,0,0,0,0,2.285,2.276,2.268,2.259,2.259,2.251,2.251,2.251,2.251,2.251,2.243,2.243,2.243,2.235,2.235,2.235,2.227,2.219,2.219,2.203,2.203,2.187,2.172,2.172,2.156,2.149,2.134,2.127,2.119,2.119,2.112,2.105,2.097
