0,0,0,0,0,0,0,2.002,2.002,2.002,2.002,1.995,1.989,1.989,1.989,1.989,1.989,1.989,1.982,1.982,1.982,1.989,1.989,1.989,1.989,1.989,1.989,1.989,1.982,1.976,1.97,1.97,1.957,1.951,1.945,1.939,1.933,1.933,1.933,1.927,1.927,0,0,0,0,0,0,0,1.205,1.189,1.175,1.162,1.147,1.132,1.117,1.105,1.095,1.092,1.088,1.086,1.082,1.078,1.076,1.074,1.073,1.069,1.067,1.065,1.063,1.061,1.061,1.06,1.06,1.058,1.06,1.061,1.061,1.065,1.067,1.071,1.073,1.074,1.076,1.078,1.08,1.078,1.078,1.076,1.078,1.078,1.08,1.078,1.078,1.08,1.08,1.08,1.082,1.082,1.084,1.086,1.09,1.095,1.101,1.109,1.119,1.126,1.134,1.14,1.147,1.151,1.157,1.162,1.164,1.166,1.166,1.166,1.166,1.164,1.153,1.142,1.134,1.124,1.113,1.095,1.074,1.054,0,1.006,0,0.975,0.966,0,0,0.957,0.962,0.966,0.963,0.963,0.963,0.963,0,0.96,0.956,0.95,0,0.938,0.934,0.928,0.921,0.915,0,0.9,0.892,0.884,0.877,0.87,0.861,0.85,0.841,0.833,0,0.816,0,0,0.794,0.789,0.787,0.785,0.784,0.782,0.781,0.781,0.78,0.779,0.778,0.776,0.774,0.771,0.768,0.765,0.762,0.76,0.756,0.752,0.749,0.747,0.743,0.74,0.738,0.736,0.733,0.732,0.73,0.728,0.726,0.726,0.725,0.724,0.723,0.724,0.723,0.723,0.723,0.724,0.724,0.725,0.725,0.726,0.727,0.729,0.73,0.732,0.734,0.736,0.74,0.741,0.744,0.746,0.748,0.749,0.752,0.753,0.754,0.755,0.756,0.756,0.757,0.757,0,0,0,0,0,0,0,0,0,0,0,0.543,0.543,0.543,0.543,0.544,0.544,0.543,0.544,0.544,0,0,0,0,0,0,0,0,0,0.752,0.755,0.757,0.761,0.764,0.766,0.771,0.775,0.777,0.781,0.785,0.79,0.796,0.801,0.804,0.809,0.813,0.817,0.821,0.825,0.829,0.834,0.837,0.841,0.844,0.847,0.849,0.848,0.849,0.85,0.85,0.851,0.852,0.856,0.86,0.862,0.866,0.868,0.87,0.872,0.873,0.873,0.873,0.872,0.87,0.87,0.872,0.873,0.873,0.873,0.874,0.874,0.874,0.873,0.874,0.874,0.872,0.872,0.872,0.87,0.87,0.87,0.869,0,0,0,0,0,0,0,0,0,0,0,0,0,0,0,0.551,0.551,0.551,0.551,0.55,0.55,0.55,0.549,0.549,0.549,0.549,0.549,0.549,0.549,0.55,0.551,0.552,0.553,0.554,0.556,0.557,0.56,0.562,0.563,0.566,0.567,0.57,0.571,0.573,0.574,0.575,0.576,0.577,0.578,0.579,0.58,0.581,0.582,0.584,0.584,0.586,0.587,0.588,0.59,0.59,0.592,0.593,0.594,0.596,0.598,0.6,0.601,0.604,0.605,0.607,0.609,0.611,0.612,0.613,0.613,0.614,0.615,0.615,0.615,0.615,0.615,0.615,0.615,0.614,0.614,0.613,0.613,0.612,0.611,0.609,0.608,0.607,0,0.602,0.599,0.596,0.591,0.587,0.582,0.58,0.578,0.575,0.573,0.572,0.57,0.57,0.568,0.567,0.565,0.564,0.563,0.561,0.56,0.559,0.558,0.556,0.555,0.554,0.553,0.552,0.551,0,0,0,0.792,0.792,0.791,0.789,0.783,0.776,0.77,0.765,0.762,0.758,0.755,0.752,0.75,0.749,0.749,0.749,0.75,0.751,0.752,0.753,0.755,0.757,0.76,0.762,0.766,0.77,0.774,0.777,0.781,0.783,0.785,0.787,0.789,0.79,0.791,0.792,0.792,0.794,0.795,0.796,0.798,0.798,0.8,0.8,0.801,0.802,0.802,0.802,0.802,0.802,0.801,0.8,0.8,0.802,0.802,0.803,0.804,0.805,0.808,0.807,0.805,0.802,0,0,0,0,0.755,0.743,0.74,0.738,0.734,0.732,0.73,0.728,0.727,0.726,0.724,0.723,0.721,0.721,0.72,0.72,0.719,0.718,0.717,0.716,0.715,0.715,0.714,0.712,0.713,0.712,0.711,0.711,0.711,0.711,0.712,0.712,0.713,0.713,0.713,0.713,0.713,0.713,0.713,0.712,0.711,0.711,0.71,0.709,0.708,0.707,0.706,0.704,0.702,0.701,0.7,0.699,0.699,0.701,0.699,0.699,0,0.701,0.7,0.699,0.698,0.697,0.696,0.696,0.694,0.694,0.693,0.69,0.687,0.685,0.683,0.681,0.678,0.678,0.675,0.672,0.671,0.671,0.67,0.667,0.665,0.665,0.664,0.664,0.665,0.664,0.664,0.663,0.664,0.664,0.664,0.662,0.662,0.66,0.659,0.659,0.659,0.657,0.657,0.658,0.66,0.66,0,0,0,0,0,0,0,0,0,0,2.391,2.42,2.439,2.468,2.529,2.54,2.561,2.593,0
0,0,0,0,0,0,0,2.015,2.015,2.015,2.008,2.002,1.995,2.002,2.002,2.002,1.995,1.995,1.995,1.995,1.995,1.995,1.995,1.995,2.002,1.995,1.995,1.995,1.995,1.982,1.982,1.976,1.97,1.957,1.951,1.945,1.939,1.939,1.939,1.933,1.933,0,0,0,0,0,0,0,1.21,1.191,1.177,1.166,1.151,1.136,1.121,1.105,1.097,1.092,1.088,1.084,1.08,1.076,1.073,1.071,1.069,1.067,1.063,1.061,1.06,1.058,1.056,1.056,1.056,1.056,1.056,1.058,1.06,1.063,1.065,1.069,1.071,1.071,1.073,1.074,1.074,1.074,1.074,1.073,1.073,1.074,1.076,1.074,1.076,1.076,1.076,1.078,1.08,1.078,1.08,1.084,1.086,1.092,1.097,1.105,1.115,1.124,1.132,1.14,1.147,1.153,1.157,1.162,1.166,1.166,1.168,1.168,1.168,1.164,1.151,1.142,1.134,1.121,1.111,1.09,0,0,1.004,0.98,0.962,0.951,0.945,0.943,0.94,0.943,0.947,0.954,0.951,0.954,0.954,0.953,0.951,0.951,0.947,0.941,0.934,0.933,0.93,0.923,0.917,0.909,0.902,0.895,0.887,0.88,0.873,0.868,0.858,0.848,0.84,0.832,0.824,0.816,0,0,0.796,0.792,0.789,0.787,0.787,0.785,0.784,0.783,0.782,0.781,0.779,0.777,0.775,0.772,0.769,0.765,0.762,0.76,0.757,0.753,0.751,0.748,0.745,0.742,0.74,0.738,0.736,0.734,0.732,0.73,0.728,0.726,0.726,0.725,0.724,0.723,0.723,0.723,0.723,0.724,0.724,0.724,0.725,0.726,0.726,0.728,0.729,0.731,0.732,0.734,0.737,0.739,0.74,0.742,0.745,0.747,0.748,0.749,0.75,0.751,0.752,0.753,0.753,0,0,0,0,0,0,0,0,0,0,0,0,0.542,0.542,0.542,0.542,0.542,0.542,0.543,0,0,0,0,0,0,0,0,0,0,0.739,0.742,0.746,0.749,0.752,0.756,0.759,0.763,0.767,0.77,0.772,0.773,0.778,0.785,0.793,0.797,0.803,0.807,0.81,0.816,0.823,0.827,0.832,0.836,0.84,0.843,0.847,0.848,0.849,0.85,0.849,0.85,0.851,0.852,0.855,0.858,0.861,0.863,0.864,0.867,0.867,0.868,0.868,0.869,0.868,0.867,0.867,0.869,0.87,0.87,0.87,0.872,0.873,0.873,0.873,0.873,0.872,0.872,0.872,0.87,0,0.869,0.868,0,0,0,0,0,0,0,0,0,0,0,0,0,0,0,0,0.55,0.551,0.551,0.551,0.55,0.55,0.549,0.549,0.549,0.548,0.548,0.548,0.548,0.549,0.549,0.55,0.551,0.552,0.553,0.554,0.556,0.558,0.56,0.562,0.564,0.566,0.569,0.571,0.572,0.573,0.574,0.575,0.576,0.577,0.578,0.579,0.58,0.581,0.583,0.584,0.584,0.586,0.587,0.588,0.589,0.59,0.592,0.593,0.595,0.597,0.598,0.6,0.602,0.604,0.605,0.608,0.61,0.61,0.612,0.612,0.613,0.613,0.614,0.614,0.614,0.613,0.613,0.613,0.612,0.612,0.612,0.612,0.61,0.61,0.608,0.608,0.607,0.605,0,0.601,0.598,0.594,0.589,0,0,0,0.576,0.573,0.572,0.57,0.569,0.567,0.566,0.564,0.563,0.562,0.561,0.56,0.559,0.558,0.556,0.555,0.553,0.553,0.552,0.551,0.55,0.549,0,0,0,0.792,0.789,0.781,0.773,0.767,0.762,0.758,0.753,0.75,0.747,0.746,0.745,0.745,0.745,0.746,0.747,0.748,0.749,0.749,0.752,0.755,0.758,0.762,0.765,0.77,0.775,0.779,0.781,0.784,0.786,0.788,0.789,0.791,0.792,0.793,0.794,0.796,0.796,0.798,0.8,0.801,0.801,0.802,0.804,0.804,0.804,0.807,0.805,0.804,0.804,0.805,0.807,0.809,0.811,0.813,0.815,0.818,0.817,0.816,0.814,0.81,0,0,0,0,0.737,0.734,0.732,0.727,0.726,0.724,0.722,0.72,0.72,0.718,0.717,0.715,0.715,0.715,0.713,0.712,0.711,0.71,0.709,0.708,0.707,0.707,0.706,0.706,0.706,0.706,0.706,0.705,0.706,0.706,0.706,0.706,0.706,0.706,0.706,0.706,0.706,0.706,0.706,0.705,0.705,0.704,0.703,0.702,0.702,0.7,0.699,0.698,0.698,0,0,0.698,0.698,0,0,0.697,0,0.696,0.695,0.694,0.694,0.694,0.694,0.694,0.694,0.693,0.693,0.692,0.691,0.69,0.688,0.687,0.685,0.683,0.681,0.679,0.677,0.675,0.672,0.669,0.667,0.665,0.664,0.664,0.663,0.662,0.661,0.662,0.662,0.661,0.659,0.659,0.657,0.656,0.656,0.655,0.654,0.654,0.655,0.657,0.658,0.66,0,0,0,0,0,0,0,0,0,2.364,2.391,2.42,2.458,2.488,2.508,2.519,2.561,2.615
0,0,0,0,0,0,0,2.028,2.022,2.022,2.022,2.015,2.008,2.008,2.008,2.008,2.008,2.008,2.008,2.002,2.002,2.002,2.008,2.008,2.008,2.008,2.008,2.002,2.002,1.995,1.989,1.982,1.97,1.963,1.957,1.945,1.945,1.939,1.939,1.939,1.933,0,0,0,0,0,0,0,0,1.191,1.177,1.166,1.151,1.138,1.121,1.107,1.097,1.092,1.086,1.08,1.078,1.074,1.069,1.065,1.063,1.061,1.06,1.056,1.054,1.054,1.052,1.052,1.052,1.052,1.054,1.054,1.058,1.06,1.063,1.065,1.067,1.069,1.069,1.071,1.073,1.071,1.071,1.069,1.069,1.071,1.073,1.073,1.073,1.073,1.074,1.076,1.076,1.076,1.076,1.078,1.082,1.086,1.09,1.101,1.109,1.119,1.128,1.136,1.142,1.151,1.155,1.162,1.164,1.168,1.168,1.166,1.168,1.164,1.149,1.14,0,0,0,0,1.033,1.001,0,0.951,0.935,0.93,0.927,0.926,0.927,0.93,0.934,0.941,0.943,0.945,0.945,0.944,0.944,0.943,0.938,0.935,0.927,0.927,0.923,0.915,0.91,0.902,0.896,0.888,0.88,0.873,0.867,0.861,0.852,0.843,0.836,0.829,0.822,0.815,0.808,0.801,0.797,0.793,0.791,0.789,0.788,0.787,0.786,0.784,0.783,0.781,0.779,0.777,0.775,0.772,0.768,0.765,0.762,0.759,0.756,0.753,0.749,0.748,0.745,0.743,0.74,0.739,0.736,0.734,0.732,0.73,0.729,0.726,0.726,0.725,0.724,0.723,0.723,0.723,0.722,0.723,0.723,0.723,0.724,0.725,0.726,0.726,0.727,0.729,0.73,0.732,0.733,0.735,0.737,0.739,0.74,0.742,0.743,0.744,0.745,0.745,0.746,0.746,0,0,0,0,0,0,0,0,0,0,0,0,0,0.541,0.541,0.541,0.541,0.541,0.541,0.541,0,0,0,0,0,0,0,0,0,0,0.728,0,0.735,0.739,0.742,0.747,0.75,0.755,0.758,0.761,0.761,0.762,0.763,0.768,0.772,0.778,0.784,0.798,0.8,0.807,0.818,0.823,0.83,0,0.838,0.843,0.847,0.848,0.849,0.849,0.849,0.85,0.85,0.852,0.854,0.856,0.857,0.861,0.862,0.863,0.864,0.864,0.866,0.866,0.864,0.866,0.864,0.867,0.868,0.869,0.869,0.87,0.87,0.872,0.872,0.87,0.87,0.869,0.87,0,0.868,0.868,0,0,0,0,0,0,0,0,0,0,0,0,0,0,0,0,0.551,0.551,0.55,0.55,0.55,0.549,0.549,0.549,0.548,0.548,0.548,0.548,0.548,0.547,0.548,0.548,0.549,0.55,0.551,0.552,0.553,0.555,0.557,0.559,0.561,0.563,0.565,0.567,0.569,0.571,0.572,0.573,0.574,0.575,0.576,0.577,0.578,0.579,0.58,0.581,0.582,0.584,0.585,0.586,0.588,0.589,0.59,0.592,0.593,0.595,0.596,0.598,0.6,0.601,0.603,0.604,0.607,0.608,0.61,0.611,0.612,0.612,0.613,0.613,0.613,0.613,0.613,0.612,0.611,0.611,0.611,0.611,0.61,0.609,0.609,0.608,0.608,0.607,0.606,0,0,0,0.597,0.592,0,0,0,0,0.573,0,0,0.567,0.566,0.565,0.563,0.562,0.561,0.56,0.559,0.558,0.557,0.556,0.555,0.553,0.552,0.552,0.551,0.55,0.549,0.547,0.546,0.546,0,0,0,0,0,0.759,0.753,0.749,0.746,0.744,0.743,0.741,0.74,0.741,0.741,0.742,0.742,0.743,0.745,0.746,0.749,0.752,0.756,0.759,0.763,0.769,0.773,0.777,0.782,0.784,0.786,0.788,0.789,0.791,0.792,0.794,0.795,0.797,0.798,0.8,0.801,0.802,0.803,0.805,0.807,0.807,0.809,0.809,0.809,0.809,0.811,0.814,0.816,0.819,0.822,0.825,0.828,0.828,0.829,0.828,0.825,0,0,0,0,0,0.727,0.725,0.72,0.719,0.716,0.715,0.714,0.712,0.71,0.709,0.707,0.706,0.706,0.705,0.704,0.702,0.702,0.702,0.7,0.7,0.699,0.698,0.698,0.698,0.698,0.698,0.698,0.698,0.699,0.699,0.699,0.7,0.699,0.7,0.7,0.7,0.7,0.699,0.699,0.699,0.698,0.698,0.696,0.697,0.695,0.696,0.695,0.695,0.696,0.698,0.699,0.699,0.698,0.697,0.698,0.698,0.697,0.696,0.694,0.694,0.694,0.694,0.694,0.694,0.694,0.693,0.692,0.691,0.69,0.688,0.687,0.684,0.683,0.681,0.679,0.678,0.676,0.673,0.671,0.668,0.667,0.665,0.664,0.663,0.662,0.661,0.661,0.659,0.659,0.657,0.657,0.655,0.654,0.653,0.652,0.652,0.652,0.652,0.654,0.657,0.659,0.663,0.667,0,0,0,0,0,0,2.319,2.337,2.373,2.391,2.429,2.458,2.478,2.488,2.529,2.582
0,0,0,0,0,0,0,2.035,2.035,2.028,2.028,2.022,2.022,2.022,2.015,2.015,2.015,2.015,2.015,2.015,2.015,2.008,2.015,2.015,2.015,2.015,2.015,2.008,2.008,2.002,1.995,1.982,1.976,1.963,1.963,1.957,1.945,1.945,1.939,1.939,0,0,0,0,0,0,0,0,0,0,0,1.166,1.151,1.138,1.124,1.111,1.097,1.09,1.084,1.078,1.074,1.069,1.065,1.063,1.061,1.058,1.054,1.054,1.051,1.051,1.051,1.051,1.051,1.051,1.051,1.052,1.056,1.058,1.06,1.063,1.065,1.065,1.067,1.069,1.069,1.067,1.067,1.065,1.067,1.067,1.069,1.069,1.069,1.071,1.071,1.073,1.073,0,1.073,1.074,1.076,1.082,1.086,0,1.101,1.111,1.121,1.13,1.136,1.144,1.151,1.157,1.162,1.164,1.166,1.166,1.166,1.162,1.142,0,0,0,1.09,1.045,0,0,0,0.93,0.919,0,0.915,0.916,0,0.921,0.926,0.933,0.934,0,0,0,0.933,0.931,0.927,0.923,0.916,0.916,0.91,0.906,0.901,0.895,0.888,0.88,0.874,0,0,0.855,0.848,0.84,0.833,0.826,0.819,0.814,0.808,0.802,0.798,0.794,0.792,0.791,0.789,0.787,0.786,0.784,0.782,0.781,0.779,0.777,0.773,0.77,0.766,0.762,0.76,0.757,0.754,0.75,0.748,0.746,0.744,0.741,0.74,0.738,0.736,0.734,0.732,0.73,0.728,0.726,0.726,0.724,0.723,0.722,0.722,0.721,0.721,0.721,0.721,0.722,0.722,0.723,0.724,0.725,0.726,0.726,0.727,0.728,0.73,0.731,0.732,0.733,0.735,0.737,0.738,0.74,0.74,0.74,0.74,0.741,0.74,0,0,0,0,0,0,0,0,0,0,0,0,0.54,0.54,0.54,0.541,0.541,0.541,0,0,0,0,0,0,0,0,0,0,0.717,0.72,0.724,0.726,0.73,0.733,0.738,0.741,0.745,0.748,0.75,0.75,0.749,0.752,0.755,0.758,0.763,0.774,0.793,0.795,0,0,0,0,0,0,0,0.847,0.848,0.849,0.848,0.848,0.849,0.849,0.851,0.854,0.856,0.858,0.861,0.862,0.863,0.864,0.864,0.864,0.864,0.863,0.863,0.864,0.864,0.867,0.868,0.868,0.869,0.87,0.87,0.87,0.87,0.869,0.868,0.868,0.868,0.867,0,0,0,0,0,0,0,0,0,0,0,0,0,0,0,0,0.553,0.551,0.551,0.55,0.55,0.55,0.549,0.549,0.548,0.548,0.548,0.548,0.547,0.547,0.547,0.547,0.548,0.548,0.549,0.55,0.551,0.552,0.553,0.556,0.558,0.559,0.561,0.564,0.565,0.567,0.569,0.571,0.572,0.573,0.574,0.575,0.577,0.578,0.578,0.58,0.581,0.583,0.584,0.585,0.586,0.588,0.589,0.591,0.592,0.593,0.595,0.596,0.597,0.599,0.6,0.601,0.603,0.605,0.607,0.608,0.609,0.61,0.61,0.611,0.612,0.612,0.612,0.611,0.61,0.61,0.609,0.609,0.608,0.608,0.608,0.607,0.608,0.607,0.608,0.607,0.605,0,0,0,0,0,0,0,0,0,0,0,0,0,0,0,0.561,0,0.559,0.558,0.557,0.556,0.555,0.554,0.553,0.552,0.552,0.551,0.55,0.549,0.547,0.546,0.545,0.544,0.543,0.543,0,0,0,0.749,0.745,0.742,0.74,0.74,0.739,0.738,0.738,0.738,0.739,0.739,0.74,0.74,0.742,0.743,0.746,0.749,0.752,0.757,0.762,0.767,0.772,0.776,0.78,0.782,0.785,0.787,0.789,0.791,0.793,0.795,0.797,0.798,0.8,0.801,0.802,0.804,0.807,0.808,0.81,0.811,0.812,0.812,0.814,0.816,0.819,0.824,0.827,0.83,0.834,0.838,0.841,0.843,0.843,0.842,0,0,0,0,0,0,0.717,0.714,0.711,0.709,0.707,0.704,0.702,0.701,0.698,0.698,0.697,0.696,0.696,0.695,0.694,0.694,0.693,0.692,0.692,0.692,0.691,0.691,0.691,0.691,0.691,0.691,0.691,0.692,0.692,0.693,0.693,0.693,0.694,0.694,0.694,0.694,0.693,0.694,0.693,0.693,0.691,0.691,0.692,0.692,0.692,0.693,0.693,0.694,0.698,0.7,0.702,0.701,0.701,0.701,0.701,0.7,0.698,0.696,0.694,0.695,0.694,0.695,0.695,0.695,0.694,0.693,0.692,0.69,0.688,0.687,0.684,0.682,0.681,0.679,0.677,0.675,0.673,0.671,0.668,0.667,0.666,0.664,0.663,0.662,0.659,0.659,0.657,0.657,0.655,0.654,0.652,0.652,0.65,0.65,0.65,0.65,0.651,0.653,0.655,0.658,0.662,0.668,0,0,0,0,0,0,0,2.31,2.346,2.382,2.41,2.448,2.458,2.478,2.508,2.561
0,0,0,0,0,0,2.035,2.035,2.035,2.035,2.035,2.028,2.022,2.028,2.028,2.028,2.022,2.022,2.022,2.022,2.022,2.022,2.015,2.015,2.015,2.015,2.015,2.008,2.008,2.008,1.995,1.989,1.982,1.97,1.97,1.963,1.951,1.951,1.945,1.945,0,0,0,0,0,0,0,0,0,0,0,0,0,0,0,0,0,0,0,0,0,0,0,0,0,0,0,0,0,0,0,0,0,0,0,1.051,1.054,1.056,1.058,1.06,1.061,1.061,1.065,1.067,1.067,1.063,1.065,1.063,1.063,1.065,1.067,1.067,1.067,1.069,0,0,0,0,0,0,0,0,0,0,1.097,0,0,0,0,0,0,1.153,1.16,1.162,1.162,1.16,1.157,0,0,0,0,0,1.031,0,0,0,0,0,0.897,0.902,0.906,0.908,0.91,0.913,0.919,0.924,0.926,0,0,0,0.919,0.915,0.913,0.91,0.905,0,0.898,0.893,0.889,0.884,0.879,0.873,0.866,0.861,0.855,0.849,0.843,0.836,0.829,0.824,0.818,0.813,0.808,0.803,0.799,0.796,0.793,0.792,0.79,0.789,0.787,0.785,0.783,0.781,0.778,0.775,0.772,0.768,0.763,0.76,0.757,0.753,0.75,0.747,0.745,0.743,0.741,0.74,0.739,0.736,0.735,0.733,0.732,0.729,0.727,0.726,0.724,0.723,0.722,0.721,0.72,0.72,0.72,0.72,0.72,0.72,0.721,0.721,0.721,0.722,0.722,0.723,0.724,0.724,0.726,0.726,0.727,0.729,0.73,0.732,0.733,0.734,0.735,0.736,0.736,0.737,0,0,0,0,0,0,0,0,0,0,0,0,0,0.539,0.539,0.539,0.539,0.539,0,0,0,0,0,0,0,0,0,0,0.71,0.711,0.713,0.715,0.718,0.721,0.725,0.729,0.732,0.735,0.738,0.74,0.74,0.739,0,0,0,0,0.755,0.782,0,0.799,0.812,0,0,0,0,0,0,0,0,0.848,0.848,0.849,0.849,0.85,0.852,0.855,0.857,0.86,0.862,0.862,0.863,0.864,0.864,0.863,0.862,0.863,0.862,0.866,0,0,0,0.869,0,0.869,0.869,0.868,0.868,0.868,0.867,0.867,0,0,0,0,0,0,0,0,0,0,0,0,0,0,0,0,0.555,0.553,0.552,0.552,0.551,0.551,0.549,0.549,0.549,0.548,0.548,0.548,0.547,0.547,0.546,0.547,0.546,0.547,0.547,0.548,0.549,0.55,0.551,0.553,0.554,0.557,0.558,0.56,0.562,0.564,0.566,0.568,0.57,0.571,0.572,0.574,0.575,0.576,0.577,0.579,0.58,0.581,0.583,0.584,0.586,0.588,0.589,0.59,0.591,0.593,0.593,0.594,0.596,0.597,0.598,0.599,0.601,0.602,0.604,0.605,0.607,0.607,0.608,0.608,0.609,0.61,0.61,0.61,0.609,0.608,0.608,0.607,0.608,0.607,0.607,0.608,0.608,0.608,0.607,0.608,0.607,0.606,0,0,0,0,0,0,0,0,0,0,0,0,0,0.564,0,0.56,0,0,0.557,0.556,0.555,0.554,0.554,0.553,0.552,0.551,0.55,0.55,0.549,0.547,0.546,0.545,0.545,0.543,0.542,0.542,0.541,0,0,0.74,0.739,0.738,0.736,0.736,0.736,0.736,0.737,0.736,0.737,0.736,0.737,0.738,0.74,0.74,0.741,0.744,0.748,0.75,0.755,0.761,0.763,0.766,0.771,0.775,0.779,0.782,0.785,0.789,0.791,0.795,0.797,0.799,0.801,0.803,0.804,0.805,0.808,0.81,0.812,0.814,0.814,0.817,0.821,0.825,0.828,0.832,0.836,0.838,0.843,0.847,0.847,0.849,0.849,0,0,0,0,0,0,0.708,0.706,0.705,0.702,0.699,0.697,0.695,0.692,0.691,0.69,0.689,0.688,0.689,0.688,0.687,0.687,0.687,0.686,0.686,0.685,0.685,0.684,0.684,0.684,0.684,0.684,0.684,0.685,0.685,0.686,0.687,0.687,0.687,0.687,0.687,0.687,0.687,0.687,0.688,0.687,0.688,0.688,0.688,0.688,0.689,0.691,0.691,0.693,0.696,0.7,0.704,0.703,0.703,0.703,0,0.704,0.702,0.699,0.697,0.695,0.694,0.695,0.695,0.694,0.694,0.691,0.691,0.689,0.687,0.684,0.683,0.681,0.679,0.677,0.675,0.674,0.672,0.669,0.667,0.666,0.664,0.663,0.662,0.66,0.658,0.657,0.655,0.654,0.652,0.652,0.65,0.648,0.648,0.647,0.648,0.648,0.649,0.652,0.654,0.657,0.662,0.668,0,0,0,0,0,0,0,2.276,0,0,2.391,2.41,2.42,2.448,2.478,2.529
0,0,0,0,0,0,2.042,2.042,2.035,2.035,2.035,2.028,2.028,2.028,2.028,2.028,2.028,2.028,2.028,2.028,2.022,2.022,2.022,2.022,2.022,2.022,2.015,2.015,2.015,2.008,2.002,1.995,1.989,1.976,1.97,1.97,1.957,1.957,1.957,0,0,0,0,0,0,0,0,0,0,0,0,0,0,0,0,0,0,0,0,0,0,0,0,0,0,0,0,0,0,0,0,0,0,0,0,0,0,0,0,0,1.058,1.061,1.063,1.063,1.063,1.063,1.061,1.061,1.061,1.063,1.063,1.063,1.063,1.065,1.063,1.063,1.061,1.058,0,0,0,0,0,0,0,0,0,0,0,0,0,0,0,0,0,0,0,0,0,0,0,0,0,0,0,0,0,0,0.886,0.891,0.893,0.897,0.9,0.902,0.906,0.912,0.913,0,0,0,0.904,0.901,0.897,0.895,0.892,0.891,0.887,0.882,0.879,0.873,0.869,0.864,0.858,0.854,0.849,0.843,0.838,0.833,0.827,0.823,0.818,0.813,0.809,0.804,0.801,0.797,0.795,0.794,0.792,0.79,0.787,0.785,0.782,0.779,0.776,0.772,0.769,0.764,0.76,0.757,0.753,0.749,0.747,0.744,0.741,0.74,0.739,0.737,0.736,0.734,0.733,0.732,0.73,0.728,0.726,0.725,0.723,0.722,0.72,0.72,0.719,0.719,0.719,0.719,0.719,0.719,0.719,0.719,0.719,0.72,0.72,0.72,0.72,0.721,0.722,0.723,0.723,0.725,0.726,0.727,0.728,0.729,0.73,0.731,0.732,0,0,0,0,0,0,0,0,0,0,0,0,0,0,0,0,0,0,0,0,0,0,0,0,0,0,0.712,0.71,0.709,0.709,0.709,0.71,0.71,0.711,0.714,0.717,0.72,0.723,0.726,0.727,0.728,0.728,0.728,0,0,0.732,0.737,0,0,0,0,0,0,0,0,0,0,0,0,0,0,0.848,0.848,0.848,0.85,0.852,0.854,0.857,0.86,0.861,0.861,0.862,0.863,0.863,0.862,0.861,0,0,0,0,0,0,0,0,0,0,0,0,0,0,0,0,0,0,0,0,0,0,0,0,0,0,0,0,0.561,0.559,0.557,0.556,0.554,0.553,0.552,0.551,0.551,0.55,0.549,0.549,0.548,0.548,0.547,0.547,0.547,0.546,0.546,0.546,0.546,0.547,0.547,0.548,0.549,0.55,0.552,0.553,0.555,0.557,0.559,0.561,0.563,0.565,0.566,0.569,0.57,0.572,0.573,0.575,0.576,0.578,0.579,0.58,0.581,0.583,0.585,0.586,0.588,0.59,0.591,0.592,0.593,0.594,0.594,0.596,0.596,0.597,0.598,0.599,0.601,0.603,0.604,0.605,0.606,0.607,0.607,0.607,0.608,0.608,0.608,0.607,0.607,0.607,0.606,0.607,0.607,0.607,0.608,0.608,0.608,0.608,0.609,0.608,0.608,0.608,0,0,0,0,0,0,0,0,0,0,0,0,0,0,0,0,0,0.556,0.556,0.555,0.554,0.553,0.553,0.552,0.551,0.55,0.549,0.548,0.547,0.546,0.545,0.545,0.543,0.542,0.542,0.541,0.54,0.539,0,0,0.736,0.735,0.735,0.734,0.734,0.735,0.734,0.734,0.734,0.734,0.734,0.735,0.734,0.734,0.736,0.736,0.739,0.739,0.745,0.747,0.749,0.753,0.758,0.762,0.765,0.77,0.775,0.777,0.781,0.783,0.786,0.79,0.793,0.796,0.798,0.801,0.804,0.81,0.814,0.816,0.819,0.823,0.828,0.83,0.835,0.838,0.841,0.844,0.848,0.848,0.85,0.85,0,0,0,0,0,0.706,0.703,0.702,0.699,0.697,0.694,0.691,0.69,0.686,0.685,0.684,0.682,0.681,0.681,0.681,0.681,0.681,0.681,0.679,0.679,0.679,0.678,0.678,0.678,0.678,0.678,0.678,0.678,0.678,0.679,0.679,0.681,0.681,0.681,0.682,0.682,0.682,0.683,0.683,0.684,0.684,0.684,0.685,0.685,0.686,0.686,0.687,0.688,0.69,0.694,0.698,0.702,0.702,0.701,0.701,0.701,0.702,0.701,0.698,0.695,0.693,0.694,0.694,0.694,0.694,0.692,0.69,0.689,0.687,0.686,0.684,0.681,0.679,0.677,0.675,0.673,0.672,0.67,0.668,0.666,0.664,0.664,0.662,0.661,0.659,0.657,0.655,0.654,0.652,0.65,0.649,0.648,0.646,0.645,0.645,0.645,0.646,0.648,0.65,0.653,0.657,0.661,0.668,0.672,0,0,0,0,0,0,2.259,2.31,2.346,2.373,2.401,2.41,2.42,2.458,2.508
0,0,0,0,0,0,2.035,2.035,2.035,2.035,2.035,2.028,2.028,2.028,2.028,2.028,2.028,2.028,2.028,2.028,2.028,2.022,2.022,2.022,2.022,2.022,2.022,2.022,2.015,2.015,2.015,2.008,1.995,1.989,1.982,0,0,0,0,0,0,0,0,0,0,0,0,0,0,0,0,0,0,0,0,0,0,0,0,0,0,0,0,0,0.642,0.645,0.649,0.652,0.655,0.657,0.659,0.662,0.662,0.662,0.662,0.661,0,0,0,0,0,0,0,1.06,1.06,1.06,1.06,1.06,1.061,1.061,1.061,1.063,1.061,0,0,0,0,0,0,0,0,0,0,0,0,0,0,0,0,0,0,0,0,0,0,0,0,0,0,0,0,0,0,0,0,0,0,0.87,0.87,0.873,0.878,0.883,0.887,0.889,0.893,0.898,0,0.901,0.898,0,0.891,0.886,0.882,0.879,0.878,0.877,0.874,0.872,0.868,0.863,0.861,0.856,0.852,0.848,0.843,0.838,0.834,0.829,0.825,0.821,0.817,0.814,0.81,0.807,0.802,0.799,0.797,0.794,0.792,0.79,0.787,0.784,0.78,0.777,0.774,0.768,0.764,0.761,0.756,0.751,0.748,0.745,0.743,0.74,0.738,0.737,0.736,0.734,0.733,0.732,0.731,0.729,0.727,0.726,0.724,0.722,0.72,0.72,0.719,0.718,0.718,0.717,0.717,0.717,0.717,0.717,0.716,0.716,0.716,0.717,0.717,0.717,0.717,0.718,0.718,0.719,0.72,0.72,0.72,0.722,0.723,0.724,0.726,0.726,0,0.727,0,0,0,0,0,0,0,0,0,0,0,0,0,0,0,0,0,0,0,0,0,0.723,0.721,0.719,0.715,0.712,0.71,0.709,0.707,0.706,0.706,0.706,0.706,0.707,0.71,0.712,0.715,0.716,0.717,0.718,0.718,0.719,0,0.718,0.718,0.717,0.714,0.732,0,0,0,0,0,0,0,0,0,0,0,0,0,0,0,0.849,0.851,0.854,0.856,0.857,0.86,0.86,0,0,0,0,0,0,0,0,0,0,0,0,0,0,0,0,0,0,0,0,0,0,0,0,0,0,0,0,0,0,0,0,0,0,0.559,0.557,0.556,0.554,0.554,0.552,0.552,0.551,0.55,0.55,0.549,0.548,0.548,0.547,0.547,0.547,0.547,0.546,0.546,0.546,0.547,0.547,0.548,0.549,0.55,0.551,0.552,0.554,0.556,0.558,0.56,0.562,0.563,0.565,0.567,0.569,0.571,0.573,0.575,0.576,0.577,0.579,0.58,0.582,0.583,0.585,0.586,0.588,0.59,0.591,0.592,0.593,0.593,0.594,0.595,0.596,0.596,0.597,0.598,0.6,0.601,0.603,0.604,0.604,0.605,0.605,0.605,0.605,0.605,0.605,0.605,0.604,0.604,0.605,0.605,0.605,0.606,0.607,0.608,0.608,0.609,0.61,0.61,0.61,0.61,0.61,0,0,0,0,0,0,0,0,0,0,0,0,0,0,0,0,0,0,0,0.554,0.553,0.552,0.551,0.55,0.549,0.548,0.547,0.547,0.546,0.545,0.544,0.543,0.542,0.541,0.54,0.54,0.539,0.538,0.537,0.536,0.535,0,0,0.733,0.734,0.733,0.733,0.733,0.732,0.732,0.731,0.729,0.728,0.727,0.727,0.726,0.726,0.729,0.732,0.735,0.738,0.742,0.746,0.751,0.755,0.761,0.764,0.768,0.77,0.772,0.775,0.78,0.784,0.787,0.792,0.796,0.803,0.815,0.816,0.821,0.824,0.828,0.832,0.835,0.838,0.841,0.844,0.847,0.847,0.848,0.849,0,0,0,0,0,0.702,0.699,0.696,0.694,0.691,0.688,0.684,0.683,0.68,0.678,0.677,0.675,0.674,0.674,0.673,0.673,0.673,0.673,0.672,0.672,0.672,0.672,0.672,0.672,0.672,0.671,0.672,0.672,0.672,0.673,0.674,0.675,0.675,0.675,0.677,0.677,0.678,0.678,0.679,0.68,0.681,0.681,0.682,0.682,0.683,0.684,0.685,0,0,0,0,0,0.702,0.702,0,0,0,0,0.698,0.694,0.693,0.693,0.693,0.694,0.692,0.691,0.688,0.687,0.685,0.683,0.681,0.678,0.676,0.674,0.672,0.671,0.67,0.669,0.667,0.665,0.664,0.663,0.662,0.661,0.659,0,0,0,0.652,0,0,0,0.646,0,0,0.643,0.644,0.645,0.648,0.651,0,0.657,0.664,0.666,0.671,0,0,0,0,0,2.243,2.31,2.346,2.373,2.391,2.401,2.42,2.458,2.498
0,0,0,0,0,2.035,2.035,2.035,2.035,2.035,2.035,2.028,2.028,2.035,2.035,2.028,2.028,2.028,2.022,2.022,2.022,2.022,2.022,2.022,2.022,2.022,2.022,0,0,0,0,2.008,0,0,0,0,0,0,0,0,0,0,0,0,0,0,0,0,0,0,0,0,0,0,0.628,0,0.627,0.628,0.628,0,0,0.633,0.634,0.637,0.64,0.642,0.646,0.65,0.652,0.654,0.657,0.658,0.66,0.659,0.659,0.659,0,0.657,0,0,0,0,0,0,0,1.06,1.058,1.06,0,0,0,0,0,0,0,0,0,0,0,0,0,0,0,0,0,0,0,0,0,0,0,0,0,0,0,0,0,0,0,0,0,0,0,0,0,0,0,0.851,0.851,0.857,0.862,0.867,0.87,0.873,0.877,0.882,0.883,0.884,0.88,0,0.872,0.867,0.864,0.864,0.863,0.863,0.862,0.86,0.858,0.855,0.852,0.849,0.845,0.842,0.838,0.834,0.83,0.826,0.824,0.819,0.817,0.814,0.81,0.808,0.803,0.8,0.797,0.795,0.792,0.789,0.785,0.781,0.776,0.772,0.768,0.763,0.759,0.755,0.75,0.746,0.743,0.74,0.738,0.735,0.734,0.732,0.732,0.731,0.73,0.728,0.726,0.726,0.724,0.722,0.72,0.719,0.717,0.716,0.715,0.715,0.715,0.714,0.714,0.714,0.713,0.713,0.713,0.713,0.712,0.712,0.712,0.713,0.713,0.714,0.714,0.715,0.715,0.716,0.717,0.718,0.719,0.72,0.72,0,0,0,0,0,0,0,0,0,0,0,0,0,0,0,0,0,0,0.73,0.729,0.729,0.728,0.726,0.725,0.723,0.721,0.72,0.716,0.714,0.711,0.709,0.707,0.706,0.705,0.703,0.703,0.703,0.705,0.706,0.706,0.706,0.707,0.707,0.708,0.707,0.709,0.709,0.706,0.705,0.703,0.702,0.705,0,0,0,0,0,0,0,0,0,0,0,0,0,0,0,0,0,0,0,0,0,0,0,0,0,0,0,0,0,0,0,0,0,0,0,0,0,0,0,0,0,0,0,0,0,0,0,0,0,0,0,0,0,0.561,0.56,0.558,0.557,0.556,0.554,0.554,0.553,0.552,0.551,0.551,0.55,0.549,0.549,0.548,0.548,0.547,0.547,0.547,0.546,0.546,0.546,0.546,0.547,0.547,0.548,0.549,0.55,0.551,0.553,0.555,0.557,0.559,0.561,0.563,0.564,0.566,0.569,0.57,0.572,0.574,0.575,0.577,0.578,0.58,0.581,0.583,0.585,0.586,0.588,0.59,0.591,0.592,0.593,0.593,0.594,0.594,0.595,0.596,0.597,0.598,0.599,0.6,0.601,0.602,0.602,0.603,0.603,0.603,0.604,0.603,0.603,0.602,0.602,0.602,0.602,0.604,0.604,0.605,0.607,0.608,0.608,0.609,0.61,0.611,0.611,0.612,0.612,0.614,0,0,0,0,0,0,0.652,0.653,0.654,0.654,0.654,0.654,0,0,0,0,0,0,0,0,0,0.551,0.55,0.549,0.548,0.547,0.546,0.545,0.544,0.543,0.542,0.542,0.541,0.54,0.539,0.538,0.537,0.536,0.535,0.534,0.533,0,0,0.732,0.732,0.732,0.732,0.731,0.729,0.726,0.724,0.722,0.721,0.72,0.719,0.718,0.718,0.72,0.721,0.724,0.727,0.73,0.732,0.735,0.74,0.742,0.758,0.761,0.76,0.766,0.77,0.773,0.78,0.785,0.793,0.801,0.814,0.816,0.822,0.825,0.829,0.832,0.835,0.836,0.841,0.843,0.844,0.845,0.847,0.848,0,0,0,0,0,0.695,0.691,0.687,0.685,0.682,0.679,0.677,0.675,0.672,0.67,0.67,0.669,0.667,0.667,0.667,0.667,0.667,0.667,0.666,0.667,0.667,0.667,0.667,0.666,0.666,0.666,0.667,0.667,0.667,0.668,0.669,0.669,0.67,0.671,0.672,0.673,0.674,0.675,0.676,0.676,0.678,0.678,0.68,0.681,0.681,0,0,0,0,0,0,0,0,0.705,0.703,0,0,0,0.696,0.693,0.691,0.69,0,0.689,0.688,0.687,0.684,0.682,0.681,0.679,0.677,0.675,0.672,0.671,0.669,0.669,0.669,0.667,0.666,0.664,0.663,0.662,0.661,0.659,0.658,0,0,0,0,0,0,0,0,0,0,0,0,0.643,0,0,0,0,0,0,0,0,0,0,0,0,0,2.302,2.346,2.364,2.382,2.391,2.41,2.439,2.478
0,0,0,0,0,2.028,2.022,2.028,2.028,2.028,2.028,2.028,2.022,2.022,2.028,2.028,2.028,2.022,2.022,2.022,2.015,2.015,2.015,2.015,2.015,2.015,2.015,0,0,0,0,2.015,0,0,0,0,0,0,0,0,0,0,0,0,0,0,0,0,0,0,0.628,0,0,0,0.627,0.626,0.626,0.626,0.627,0.628,0.63,0.63,0.632,0.636,0.637,0.641,0.644,0.647,0.65,0.652,0.654,0.656,0.657,0.657,0.657,0.656,0.654,0.654,0.653,0.654,0,0,0,0,0,0,0,0,0,0,0,0,0,0,0,0,0,0,0,0,0,0,0,0,0,0,0,0,0,0,0,0,0,0,0,0,0,0,0,0,0,0,0,0,0.837,0.838,0.841,0.841,0.843,0.847,0.85,0.855,0.858,0.862,0.864,0.868,0.87,0.873,0,0,0.861,0.856,0.855,0.852,0.852,0.851,0.852,0.85,0.849,0.847,0.845,0.843,0.841,0.838,0.835,0.832,0.828,0.825,0.822,0.818,0.816,0.813,0.81,0.807,0.803,0.799,0.796,0.793,0.791,0.787,0.783,0.778,0.772,0.767,0.762,0.758,0.754,0.749,0.745,0.741,0.738,0.735,0.733,0.732,0.73,0.729,0.727,0.727,0.726,0.725,0.723,0.722,0.72,0.719,0.716,0.715,0.714,0.713,0.711,0.711,0.711,0.71,0.71,0.71,0.709,0.709,0.709,0.709,0.709,0.709,0.709,0.71,0.71,0.71,0.711,0.712,0.713,0.714,0.714,0.715,0.716,0,0,0,0,0,0,0,0,0,0,0,0,0,0,0,0,0,0,0,0.732,0.731,0.73,0.729,0.728,0.726,0.725,0.724,0.722,0.72,0.717,0.714,0.711,0.709,0.707,0.705,0.702,0.702,0.699,0.698,0.698,0.699,0.699,0.699,0.698,0.698,0.698,0.697,0.698,0.697,0.696,0.695,0.692,0.695,0.695,0,0,0,0,0,0,0,0,0,0,0,0,0,0,0,0,0,0,0,0,0,0,0,0,0,0,0,0,0,0,0,0,0,0,0,0,0,0,0,0,0,0,0,0,0,0,0,0,0,0,0,0,0,0.561,0.56,0.559,0.558,0.556,0.555,0.554,0.553,0.552,0.551,0.551,0.55,0.55,0.549,0.548,0.548,0.547,0.547,0.546,0.547,0.546,0.546,0.547,0.547,0.547,0.548,0.548,0.55,0.551,0.552,0.554,0.556,0.558,0.56,0.562,0.564,0.565,0.568,0.57,0.572,0.574,0.575,0.576,0.578,0.579,0.581,0.583,0.584,0.586,0.588,0.589,0.59,0.591,0.592,0.593,0.593,0.594,0.594,0.595,0.596,0.597,0.597,0.598,0.599,0.6,0.6,0.6,0.6,0.601,0.601,0.6,0.6,0.599,0.598,0.599,0.599,0.601,0.602,0.604,0.606,0.607,0.609,0.61,0.612,0.612,0.613,0.613,0.613,0.616,0,0,0,0,0.646,0.65,0.652,0.652,0.653,0.653,0.653,0.653,0.654,0.654,0.654,0,0,0,0,0,0,0,0,0,0,0.547,0.546,0.545,0.544,0.543,0.542,0.541,0.541,0.54,0.539,0.538,0.537,0.536,0.535,0.534,0.533,0.532,0.532,0.531,0,0,0,0,0.726,0.724,0.72,0.717,0.716,0.715,0.713,0.71,0.71,0.71,0.71,0.71,0,0.714,0.713,0,0,0.72,0,0,0,0,0.745,0.753,0.756,0.763,0.773,0.797,0.814,0.816,0.819,0.826,0.828,0.83,0.834,0.836,0.838,0.841,0.844,0.843,0.844,0,0,0.832,0,0,0,0,0.682,0.68,0.677,0.675,0.672,0.669,0.668,0.667,0.664,0.664,0.662,0.662,0.661,0.661,0.661,0.661,0.662,0.661,0.661,0.662,0.662,0.662,0.662,0.662,0.662,0.662,0.662,0.663,0.664,0.664,0.666,0.666,0.667,0.669,0.669,0.671,0.672,0.673,0.675,0.676,0.677,0.678,0.679,0.68,0.681,0,0,0,0,0,0,0.71,0.71,0.708,0.706,0,0,0.697,0.691,0,0,0,0.687,0.685,0.683,0.68,0.678,0.677,0.675,0.672,0.671,0.669,0.667,0.667,0.666,0.666,0.665,0.664,0.663,0.662,0,0.66,0.659,0.657,0,0,0,0,0,0,0,0,0,0,0.64,0.64,0.64,0,0,0,0,0,0,0,0,0,0,0,0,0,2.293,2.346,2.364,2.382,2.382,2.401,2.429,2.468
0,0,0,0,0,2.015,2.015,2.015,2.015,2.015,2.022,2.015,2.015,2.015,2.022,2.022,2.022,2.022,2.015,2.015,2.015,2.015,2.015,2.015,2.008,2.008,0,0,0,0,0,0,0,0,0,0,0,0,0,0,0,0,0,0,0,0,0,0,0.626,0.626,0.626,0.626,0.625,0.626,0.626,0.625,0.625,0.625,0.626,0.627,0.628,0.63,0.631,0.634,0.636,0.638,0.642,0.644,0.648,0.65,0.652,0.653,0.654,0.654,0.654,0.654,0.652,0.652,0.652,0.651,0.652,0,0,0,0,0,0,0,0,0,0,0,0,0,0,0,0,0,0,0,0,0,0,0,0,0,0,0,0,0,0,0,0,0,0,0,0,0,0,0,0,0.827,0.827,0.829,0.829,0.832,0.834,0.835,0.836,0.838,0.842,0.844,0.847,0.849,0.851,0.852,0.855,0.858,0.856,0,0.851,0.848,0.845,0.843,0.843,0.843,0.842,0.841,0.84,0.84,0.838,0.836,0.834,0.833,0.83,0.827,0.824,0.822,0.818,0.816,0.814,0.811,0.809,0.805,0.802,0.798,0.795,0.792,0.789,0.784,0.78,0.774,0.768,0.763,0.759,0.755,0.75,0.747,0.743,0.739,0.735,0.733,0.731,0.728,0.726,0.726,0.725,0.723,0.722,0.721,0.72,0.718,0.717,0.715,0.714,0.711,0.71,0.71,0.709,0.708,0.708,0.707,0.706,0.706,0.706,0.705,0.705,0.705,0.706,0.705,0.706,0.706,0.707,0.708,0.708,0.71,0.71,0.71,0.711,0.712,0.713,0,0,0,0,0,0,0,0,0,0,0,0,0,0,0,0,0,0.733,0.732,0.731,0.73,0.729,0.728,0.728,0.726,0.725,0.723,0.721,0.719,0.715,0.713,0.71,0.707,0.706,0.702,0.7,0.698,0.694,0.693,0.692,0.691,0.691,0.691,0.691,0.691,0.69,0.691,0.691,0.691,0.691,0.691,0.69,0.69,0.69,0,0,0,0,0,0,0,0,0,0,0,0,0,0,0,0,0,0,0,0,0,0,0,0,0,0,0,0,0,0,0,0,0,0,0,0,0,0,0,0,0,0,0,0,0,0,0,0,0,0,0,0,0,0.561,0.56,0.559,0.558,0.557,0.556,0.555,0.554,0.552,0.552,0.551,0.55,0.55,0.549,0.548,0.548,0.548,0.547,0.547,0.547,0.547,0.546,0.547,0.547,0.547,0.548,0.548,0.549,0.55,0.551,0.553,0.555,0.557,0.56,0.561,0.564,0.565,0.567,0.57,0.572,0.574,0.575,0.575,0.578,0.579,0.58,0.581,0.583,0.585,0.586,0.588,0.589,0.59,0.591,0.591,0.593,0.593,0.594,0.594,0.594,0.595,0.596,0.597,0.597,0.597,0.597,0.598,0.598,0.598,0.599,0.598,0.598,0.597,0.597,0.597,0.597,0.599,0.601,0.603,0.605,0.607,0.609,0.612,0.613,0.613,0.614,0.615,0.615,0.618,0.623,0.627,0.634,0,0.646,0,0,0.652,0.652,0.652,0.652,0.652,0.653,0.652,0.652,0.652,0.652,0.653,0,0,0,0,0,0,0,0,0,0,0,0,0,0.541,0.541,0.539,0.539,0.538,0.537,0.536,0.535,0.534,0.533,0.532,0.531,0.53,0.528,0,0,0,0,0,0,0.713,0.71,0.709,0.706,0.705,0.703,0.701,0.7,0.7,0.7,0.7,0.7,0.701,0.701,0.702,0.703,0.705,0.706,0.708,0.711,0.715,0,0,0,0,0,0.816,0.822,0.826,0.828,0.83,0.833,0.835,0.837,0.84,0.842,0.842,0,0,0,0,0,0,0,0,0,0,0,0,0,0.663,0.662,0.66,0.659,0.658,0.657,0.657,0.657,0.656,0.655,0.655,0.655,0.656,0.657,0.657,0.657,0.657,0.657,0.657,0.657,0.658,0.658,0.659,0.659,0.66,0.662,0.662,0.664,0.666,0.667,0.668,0.669,0.671,0.672,0.674,0.675,0.676,0.678,0.678,0,0,0,0,0,0,0,0,0,0,0.713,0,0,0.698,0.692,0.687,0.687,0.686,0.684,0,0.68,0.677,0.675,0.673,0.671,0.669,0.667,0.666,0.664,0.664,0.664,0.664,0.663,0.662,0.662,0.661,0.66,0,0,0,0,0,0,0,0,0,0,0,0,0,0,0,0.639,0,0,0,0,0,0,0,0,0,0,0,0,0,2.293,2.337,2.355,2.373,2.382,2.391,2.42,2.448
0,0,0,0,0,1.995,1.995,1.995,1.995,1.995,1.995,1.995,1.995,1.995,2.008,2.015,2.008,2.008,2.008,2.008,0,0,2.008,2.002,2.002,2.002,0,0,0,0,0,0,0,0,0,0,0,0,0,0,0,0,0,0,0,0,0,0,0.625,0.625,0.625,0.625,0.625,0.625,0.625,0.624,0.624,0.625,0.625,0.625,0.626,0.628,0.63,0.631,0.634,0.637,0.639,0.642,0.645,0.647,0.649,0.65,0.651,0.652,0.652,0.651,0.65,0.65,0.65,0.649,0.65,0.651,0,0,0,0,0,0,0,0,0,0,0,0,0,0,0,0,0.746,0.747,0.747,0.742,0.74,0,0,0,0,0,0,0,0,0,0,0,0,0,0,0,0.817,0.821,0.822,0.824,0.825,0.826,0.827,0.827,0.828,0.829,0.83,0.832,0.834,0.835,0.836,0.838,0.842,0.841,0.841,0.843,0,0.84,0.838,0.836,0.834,0.833,0.834,0.833,0.833,0.833,0.833,0.832,0.83,0.828,0.828,0.826,0.824,0.822,0.819,0.817,0.814,0.812,0.811,0.809,0.807,0.802,0.799,0.795,0.792,0.789,0.785,0.779,0.774,0.77,0.763,0.76,0.755,0.751,0.749,0.744,0.741,0.738,0.735,0.732,0.73,0.727,0.725,0.723,0.721,0.72,0.719,0.718,0.716,0.715,0.714,0.712,0.71,0.708,0.707,0.707,0.706,0.705,0.705,0.704,0.703,0.702,0.702,0.702,0.702,0.701,0.702,0.702,0.702,0.702,0.704,0.705,0.706,0.706,0.707,0.708,0.709,0,0,0,0,0,0,0,0,0,0,0,0,0,0,0,0,0,0,0.729,0.731,0.73,0.73,0.729,0.73,0.728,0.727,0.726,0.724,0.722,0.72,0.718,0.715,0.712,0.709,0.706,0.702,0.699,0.696,0.692,0.69,0.687,0.685,0.684,0.684,0.683,0.683,0.684,0.684,0.684,0.685,0,0,0.687,0,0,0,0,0,0,0,0,0,0,0,0,0,0,0,0,0,0,0,0,0,0,0,0,0,0,0,0,0,0,0,0,0,0,0,0,0,0,0,0,0,0,0,0,0,0,0,0,0,0,0,0,0,0,0,0,0.562,0.561,0.56,0.559,0.558,0.556,0.555,0.554,0.553,0.552,0.551,0.551,0.55,0.549,0.548,0.548,0.548,0.548,0.547,0.547,0.547,0.547,0.547,0.547,0.547,0.547,0.548,0.549,0.55,0.551,0.553,0.555,0.557,0.559,0.561,0.564,0.565,0.567,0.57,0.572,0.573,0.574,0.575,0.577,0.578,0.579,0.58,0.581,0.583,0.585,0.586,0.588,0.589,0.59,0.59,0.591,0.592,0.593,0.593,0.594,0.594,0.595,0.596,0.596,0.596,0.596,0.596,0.596,0.596,0.596,0.596,0.596,0.595,0.594,0.595,0.596,0.598,0.6,0.602,0.605,0.607,0.61,0.613,0.614,0.615,0.616,0.616,0.617,0.62,0.625,0.63,0.634,0.64,0.646,0.649,0.651,0.652,0.652,0.652,0.652,0.652,0.652,0.652,0.651,0.65,0.65,0.651,0.651,0.651,0.651,0.652,0,0,0,0,0,0,0,0,0,0,0,0,0.538,0.537,0.537,0.536,0.535,0.534,0.533,0.532,0.531,0.529,0.528,0.526,0.525,0,0,0,0,0.708,0.706,0.705,0.702,0.699,0.696,0.694,0.692,0.691,0.691,0.69,0.69,0.688,0.69,0.69,0.691,0.692,0.693,0.695,0.697,0.7,0.7,0,0,0,0,0.814,0.821,0.826,0.827,0.829,0.83,0.833,0.835,0.837,0.838,0,0,0,0,0,0,0,0,0,0,0,0,0,0.658,0.657,0.656,0.655,0.654,0.654,0.653,0.652,0.652,0.652,0.651,0.651,0.651,0.652,0.652,0.652,0.652,0.653,0.654,0.654,0.654,0.654,0.655,0.656,0.657,0.657,0.659,0.66,0.661,0.663,0.664,0.666,0.668,0.67,0.672,0.673,0.674,0.675,0.676,0.677,0,0,0,0,0,0,0,0,0,0,0,0,0,0.703,0.693,0.687,0.685,0.684,0.681,0.679,0.676,0.672,0.671,0.669,0.667,0.665,0.664,0.662,0.661,0.661,0.66,0.661,0.661,0.662,0.661,0,0,0,0,0,0,0,0,0,0,0,0,0,0,0,0.638,0,0.638,0.638,0.638,0,0,0.635,0,0.63,0,0,0,0,0,0,0,0,0,2.373,2.373,2.391,2.41,2.439
0,0,0,0,0,1.982,1.976,1.982,1.982,1.982,1.982,1.982,1.982,1.982,1.989,1.995,1.995,1.995,1.995,1.995,1.995,1.995,1.995,1.995,1.989,1.989,0,0,0,0,0,0,0,0,0,0,0,0,0,0,0,0,0,0,0,0,0,0,0.623,0.623,0.623,0.623,0.624,0.623,0.623,0.623,0.623,0.624,0.624,0.625,0.625,0.626,0.627,0.628,0.631,0.633,0.636,0.638,0.64,0.642,0.644,0.646,0.647,0.648,0.648,0.648,0.648,0.648,0.648,0.648,0.649,0.65,0.65,0.651,0,0,0,0,0,0,0,0,0,0,0,0,0.737,0.739,0.739,0,0,0,0,0,0,0,0,0,0,0,0,0,0,0,0.792,0.799,0.804,0.811,0.815,0.817,0.819,0.822,0.822,0.824,0.824,0.825,0.824,0.825,0.826,0.826,0.827,0.828,0.828,0.83,0.833,0.83,0.829,0.829,0.827,0,0.826,0.824,0.821,0.821,0.824,0.823,0.824,0.824,0.825,0.824,0.824,0.823,0.822,0.819,0.818,0.816,0.815,0.813,0.81,0.809,0.808,0.805,0.803,0.799,0.796,0.792,0.789,0.784,0.781,0.775,0.77,0.764,0.76,0.756,0.753,0.749,0.747,0.743,0.74,0.737,0.734,0.732,0.729,0.726,0.724,0.722,0.72,0.719,0.717,0.716,0.715,0.712,0.71,0.709,0.707,0.705,0.704,0.704,0.702,0.702,0.702,0.7,0.699,0.698,0.698,0.698,0.698,0.697,0.698,0.697,0.698,0.698,0.699,0.701,0.702,0.703,0.704,0.704,0,0,0,0,0,0,0,0,0,0,0,0,0,0,0,0,0,0,0.722,0.725,0.726,0.727,0.728,0.727,0.727,0.726,0.726,0.724,0.722,0.72,0.719,0.716,0.713,0.709,0.706,0.702,0.699,0.695,0.691,0.688,0.684,0.682,0.68,0.679,0.678,0.678,0.678,0.678,0.678,0.68,0,0.681,0.682,0.682,0,0,0,0.681,0,0,0,0,0,0,0,0,0,0,0,0,0,0,0,0,0,0,0,0,0,0,0,0,0,0,0,0,0,0,0,0,0,0,0,0,0,0,0,0,0,0,0,0,0,0,0,0,0,0,0,0,0,0.561,0.56,0.559,0.558,0.556,0.555,0.554,0.553,0.552,0.552,0.551,0.55,0.55,0.549,0.549,0.548,0.548,0.547,0.547,0.547,0.547,0.547,0.547,0.547,0.548,0.548,0.548,0.55,0.551,0.552,0.555,0.557,0.559,0.561,0.564,0.566,0.567,0.57,0.571,0.573,0.573,0.574,0.575,0.577,0.578,0.579,0.58,0.581,0.583,0.585,0.586,0.588,0.588,0.589,0.59,0.591,0.592,0.593,0.593,0.593,0.594,0.594,0.594,0.594,0.594,0.593,0.594,0.594,0.594,0.594,0.594,0.594,0.594,0.594,0.596,0.597,0.6,0.602,0.605,0.608,0.611,0.613,0.616,0.616,0.617,0.618,0.619,0.621,0.626,0.63,0.635,0.64,0.644,0.648,0.65,0.651,0.652,0.651,0.651,0.651,0.65,0.65,0.649,0.65,0.649,0.65,0.649,0.648,0.649,0.65,0,0.651,0.652,0.652,0,0.652,0,0,0,0,0,0,0,0,0,0.535,0.534,0.533,0.532,0.531,0.53,0.529,0.527,0.526,0.524,0.522,0.52,0.519,0,0,0,0.698,0.695,0.693,0.691,0.688,0.687,0.684,0.683,0.682,0.681,0.678,0.677,0.676,0.676,0.676,0.672,0.675,0.679,0.682,0.684,0,0,0,0,0,0,0.826,0.826,0.828,0.83,0.83,0.833,0.835,0.836,0,0,0,0,0,0,0,0,0,0,0,0.653,0.654,0.653,0.652,0.652,0.651,0.651,0.65,0.649,0.649,0.648,0.648,0.648,0.648,0.648,0.648,0.649,0.65,0.65,0.65,0.651,0.651,0.651,0.652,0.652,0.653,0.654,0.654,0.657,0.657,0.659,0.66,0.662,0.664,0.667,0.669,0.671,0.672,0.673,0.674,0.675,0.675,0,0,0,0,0,0,0,0,0,0,0,0,0,0,0,0.684,0.682,0.68,0.677,0.675,0.671,0.669,0.667,0.665,0.663,0.661,0.659,0.658,0.658,0.657,0.658,0.659,0.659,0.659,0,0,0,0,0,0,0,0,0,0,0,0,0,0,0,0,0,0.638,0.638,0.637,0.636,0.634,0.632,0.629,0.626,0.623,0.62,0.617,0.614,0,0,0,0,0,0,0,2.382,2.391,2.41,0
0,0,0,0,0,1.97,1.97,1.97,1.97,1.97,1.97,1.97,1.97,1.963,1.97,1.976,1.976,1.976,1.976,1.976,1.976,1.982,1.982,1.982,1.982,0,0,0,0,0,0,0,0,0,0,0,0,0,0,0,0,0,0,0,0,0,0,0.621,0.621,0.622,0.622,0.621,0.622,0.622,0.622,0.622,0.621,0.621,0.622,0.623,0.623,0.624,0.625,0.626,0.627,0.629,0.631,0.634,0.636,0.638,0.64,0.641,0.642,0.644,0.644,0.644,0.644,0.645,0.646,0.646,0.647,0.648,0.648,0.65,0.651,0,0,0,0,0,0,0,0,0,0,0,0,0,0,0,0,0.731,0,0,0,0,0.726,0,0,0,0,0,0,0,0,0.786,0.794,0.801,0.809,0.812,0.816,0.818,0.821,0.821,0.822,0.822,0.822,0.822,0.822,0.822,0.822,0.821,0.822,0.823,0,0,0.821,0.819,0.816,0.816,0.815,0.813,0.811,0.811,0.813,0.813,0.814,0.814,0.814,0.814,0.814,0.814,0.813,0.812,0.811,0.81,0.809,0.807,0.805,0.803,0.802,0.8,0.799,0.795,0.792,0.788,0.784,0.78,0.776,0.77,0.766,0.762,0.758,0.755,0.752,0.749,0.747,0.744,0.74,0.738,0.735,0.732,0.73,0.726,0.724,0.721,0.719,0.717,0.715,0.714,0.712,0.71,0.707,0.706,0.704,0.702,0.7,0.7,0.698,0.698,0.698,0.697,0.695,0.694,0.694,0.694,0.693,0.693,0.693,0.693,0.693,0.694,0.695,0.695,0.695,0.696,0.696,0,0,0,0,0,0,0,0,0,0,0,0,0,0,0,0,0,0,0.708,0.713,0.718,0.72,0.723,0.724,0.725,0.724,0.723,0.723,0.721,0.719,0.717,0.715,0.713,0.709,0.705,0.702,0.698,0.694,0.691,0.687,0.684,0.68,0.678,0.675,0.675,0.675,0.674,0.675,0.675,0.675,0.676,0.677,0.678,0.678,0.678,0.677,0,0,0,0,0,0,0,0,0,0,0,0,0,0,0,0,0,0,0,0,0,0,0,0,0,0,0,0,0,0,0,0,0,0,0,0,0,0,0,0,0,0,0,0,0,0,0,0,0,0,0,0,0,0,0,0,0,0,0,0,0,0,0,0,0,0,0,0.551,0.55,0.55,0.549,0.548,0.548,0.548,0.548,0.547,0.547,0.547,0.547,0.547,0.548,0.548,0.549,0.55,0.551,0.552,0.554,0.557,0.56,0.562,0.564,0.566,0.567,0.569,0.571,0.572,0.572,0.573,0.574,0.575,0.577,0.578,0.579,0.58,0.581,0.583,0.584,0.586,0.586,0.588,0.589,0.59,0.591,0.591,0.591,0.592,0.592,0.592,0.593,0.592,0.592,0.592,0.592,0.593,0.593,0.593,0.593,0.593,0.593,0.594,0.596,0.597,0.6,0.603,0.606,0.608,0.612,0.615,0.617,0.618,0.619,0.619,0.621,0.623,0.627,0.631,0.634,0.639,0.643,0.646,0.648,0.65,0.65,0.65,0.65,0.65,0.649,0.649,0.649,0.648,0.648,0.648,0.647,0.646,0.647,0.647,0.648,0.649,0.65,0.65,0.649,0.65,0.65,0.649,0,0,0,0,0,0,0,0,0,0,0.532,0.531,0.529,0.528,0.527,0.526,0.524,0.522,0.52,0.518,0.517,0.515,0,0,0.691,0.689,0.687,0.684,0.682,0.68,0.677,0.676,0.674,0.672,0.671,0.671,0.671,0.67,0.671,0.671,0.67,0.672,0.675,0.675,0,0,0,0,0,0,0.826,0.827,0.829,0.83,0.832,0.833,0.834,0,0,0,0,0,0,0,0,0,0,0.648,0.648,0.649,0.648,0.648,0.648,0.648,0.647,0.647,0.646,0.646,0.646,0.646,0.645,0.645,0.645,0.646,0.646,0.646,0.647,0.647,0.648,0.648,0.649,0.649,0.65,0.65,0.651,0.652,0.652,0.654,0.656,0.658,0.659,0.662,0.665,0.668,0.67,0.671,0.672,0.674,0.675,0,0,0,0,0,0,0,0,0,0,0,0,0,0,0,0,0,0,0.672,0.67,0.668,0.666,0.664,0.662,0.661,0.659,0.657,0.656,0.656,0.655,0.655,0.656,0.657,0.657,0.658,0,0,0,0,0,0,0,0,0,0,0,0,0,0,0,0,0,0.638,0.638,0.637,0.637,0.635,0.632,0.63,0,0.624,0.621,0.619,0.616,0,0,0,0,0,0,0,0,0,0,0
0,0,0,0,0,0,1.957,1.957,1.957,1.957,1.957,1.957,1.957,1.957,1.963,1.97,1.97,1.97,1.976,1.976,1.976,1.976,1.976,1.976,1.976,0,0,0,0,0,0,0,0,0,0,0,0,0,0,0,0,0,0,0,0,0,0,0.62,0.619,0.62,0.62,0.621,0.62,0.62,0.62,0.62,0.62,0.62,0.62,0.621,0.621,0.621,0.623,0.623,0.624,0.626,0.627,0.629,0.631,0.633,0.635,0.636,0.638,0.639,0.64,0.64,0.641,0.642,0.643,0.644,0.645,0.646,0.648,0.649,0.65,0,0,0,0,0,0,0,0,0.721,0.724,0.725,0.726,0.728,0.728,0.729,0.73,0.728,0.726,0.726,0.727,0.726,0.726,0.726,0.726,0,0,0,0,0.754,0.764,0.774,0.783,0.792,0.799,0.804,0.81,0.812,0.815,0.817,0.818,0.818,0.817,0.817,0.816,0.816,0.816,0.815,0.814,0.815,0.815,0.814,0.812,0.81,0.809,0.809,0.807,0.807,0.802,0.802,0.801,0.803,0.803,0.802,0.802,0.803,0.803,0.803,0.803,0.802,0.801,0.8,0.8,0.799,0.797,0.796,0.795,0.794,0.791,0.788,0.785,0.78,0.777,0.774,0.77,0.765,0.762,0.758,0.755,0.752,0.751,0.749,0.748,0.744,0.741,0.739,0.736,0.733,0.73,0.727,0.724,0.72,0.718,0.716,0.714,0.712,0.71,0.706,0.705,0.702,0.701,0.698,0.697,0.697,0.696,0.695,0.694,0.693,0.692,0.691,0.691,0.69,0.69,0.689,0.688,0.688,0.689,0.689,0.689,0.688,0.688,0.687,0,0,0,0,0,0,0,0,0,0,0,0,0,0,0,0,0,0,0,0,0,0.711,0.715,0.717,0.72,0.721,0.721,0.72,0.72,0.718,0.716,0.714,0.711,0.709,0.704,0.7,0.697,0.693,0.689,0.685,0.682,0.679,0.675,0.674,0.672,0.671,0.671,0.67,0.67,0.671,0.671,0.673,0.673,0.674,0,0.673,0.673,0.672,0.672,0,0,0,0,0,0,0,0,0,0,0,0,0,0,0,0,0,0,0,0,0,0,0,0,0,0,0,0,0,0,0,0,0,0,0,0,0,0,0,0,0,0,0,0,0,0,0,0,0,0,0,0,0,0,0,0,0,0,0,0,0,0.376,0,0,0.376,0,0,0,0,0.549,0.549,0.549,0.548,0.548,0.548,0.548,0.548,0.548,0.548,0.548,0.548,0.55,0.551,0.552,0.554,0.557,0.56,0.561,0.564,0.565,0.567,0.569,0.57,0.571,0.572,0.572,0.573,0.574,0.575,0.576,0.577,0.578,0.579,0.581,0.583,0.584,0.585,0.586,0.588,0.589,0.59,0.59,0.591,0.59,0.591,0.591,0.591,0.591,0.591,0.591,0.591,0.591,0.592,0.592,0.593,0.593,0.593,0.594,0.596,0.598,0.6,0.603,0.606,0.609,0.612,0.615,0.618,0.619,0.62,0.62,0.621,0.624,0.628,0.631,0.634,0.638,0.641,0.644,0.646,0.648,0.648,0.648,0.648,0.648,0.648,0.647,0.647,0.646,0.646,0.646,0.645,0.645,0.645,0.645,0.646,0.647,0.647,0.647,0.646,0.646,0.645,0.644,0.642,0.639,0.636,0,0,0,0,0,0,0,0,0,0,0,0.526,0.525,0.523,0.521,0.52,0.518,0.516,0.514,0.513,0.511,0.509,0,0.684,0.681,0.679,0.677,0.675,0.674,0.672,0.671,0.67,0.669,0.669,0.669,0.67,0.669,0.669,0.668,0.668,0.668,0.667,0.667,0,0,0,0,0,0.826,0.828,0.829,0.829,0,0,0,0,0,0,0,0,0,0,0,0,0.643,0.644,0.644,0.644,0.644,0.644,0.644,0.644,0.644,0.644,0.643,0.642,0.642,0.642,0.642,0.643,0.643,0.642,0.643,0.644,0.644,0.645,0.646,0.646,0.646,0.647,0.648,0.648,0.65,0.65,0.652,0.653,0.655,0,0,0,0,0,0,0,0,0,0,0,0,0,0,0,0,0,0,0,0,0,0,0,0,0,0,0,0,0,0,0.663,0.66,0.659,0.657,0.655,0.654,0.653,0.652,0.652,0.652,0.654,0.654,0.655,0,0,0,0,0,0,0,0,0,0,0,0,0,0,0,0,0,0.638,0.638,0.638,0.637,0.636,0.635,0.634,0.631,0.627,0.624,0.622,0.619,0,0,0,0,0,0,0,0,0,0,0,0
0,0,0,0,0,0,1.945,1.951,1.951,1.951,1.951,1.945,1.957,1.951,1.957,1.963,1.963,1.97,1.97,1.97,1.97,1.976,1.976,0,0,0,0,0,0,0,0,0,0,0,0,0,0,0,0,0,0,0,0,0,0,0.616,0.616,0.618,0.618,0.618,0.618,0.618,0.618,0.618,0.618,0.618,0.618,0.618,0.618,0.619,0.619,0.62,0.62,0.621,0.621,0.623,0.624,0.625,0.627,0.628,0.63,0.632,0.633,0.634,0.636,0.636,0.637,0.639,0.64,0.641,0.643,0.645,0.646,0.648,0.65,0.655,0,0,0,0,0,0,0,0.715,0.719,0.72,0.721,0.723,0.724,0.724,0.725,0.723,0.722,0.722,0.723,0.723,0.723,0.724,0,0,0.732,0,0.741,0.747,0.756,0.764,0.773,0.781,0.789,0.795,0.801,0.805,0.808,0.811,0.812,0.812,0.812,0.811,0.811,0.81,0.81,0.808,0.807,0.808,0.808,0.805,0.803,0.801,0.8,0.8,0.799,0.797,0.794,0.794,0.793,0.794,0.794,0.793,0.793,0.793,0.793,0.793,0.793,0.793,0.793,0.793,0.792,0.791,0.789,0.788,0.787,0.785,0.783,0.78,0.776,0.773,0.769,0.766,0.763,0.76,0.757,0.755,0.752,0.751,0.75,0.749,0.748,0.745,0.742,0.74,0.737,0.734,0.731,0.727,0.724,0.72,0.718,0.715,0.713,0.71,0.708,0.705,0.702,0.7,0.698,0.696,0.695,0.694,0.693,0.692,0.691,0.691,0.69,0.688,0.688,0.687,0.687,0.686,0.685,0.685,0.684,0.685,0.684,0.682,0.681,0,0,0,0,0,0,0,0,0,0,0,0,0,0,0,0,0,0,0.681,0.689,0.694,0.699,0.704,0.708,0.711,0.714,0.715,0.716,0.715,0.715,0.713,0.71,0.709,0.706,0.702,0.698,0.694,0.691,0.687,0.684,0.681,0.678,0.675,0.672,0.67,0.669,0.669,0.669,0.668,0.668,0.668,0.669,0.67,0.671,0.671,0.672,0.67,0.669,0.669,0.669,0.668,0,0,0,0,0,0,0,0,0,0,0,0,0,0,0,0,0,0,0,0,0,0,0,0,0,0,0,0,0,0,0,0,0,0,0,0,0,0,0.387,0.388,0.388,0.388,0.387,0.387,0.387,0.386,0.385,0.384,0.383,0.382,0,0,0,0.379,0.379,0.378,0.378,0,0,0,0.376,0.375,0.375,0.375,0.375,0.375,0.375,0,0,0.375,0,0,0,0.549,0.548,0.549,0.548,0.548,0.548,0.549,0.55,0.551,0.553,0.555,0.557,0.559,0.562,0.564,0.565,0.566,0.568,0.569,0.57,0.571,0.572,0.572,0.573,0.574,0.575,0.576,0.577,0.578,0.58,0.581,0.583,0.584,0.585,0.586,0.588,0.589,0.589,0.589,0.589,0.59,0.589,0.589,0.589,0.59,0.59,0.59,0.59,0.591,0.591,0.592,0.593,0.593,0.594,0.596,0.598,0.6,0.603,0.606,0.609,0.612,0.615,0.618,0.619,0.62,0.621,0.622,0.624,0.628,0.631,0.634,0.637,0.64,0.642,0.644,0.646,0.646,0.646,0.646,0.646,0.645,0.645,0.644,0.644,0.644,0.644,0.643,0.643,0.643,0.643,0.644,0.644,0.644,0.644,0.642,0.641,0.64,0.637,0.634,0.631,0.626,0,0.62,0,0.615,0,0,0,0,0,0,0,0,0,0.523,0.521,0.519,0.517,0.515,0.513,0.512,0.51,0.508,0.506,0,0,0.676,0.675,0.672,0.671,0.669,0.669,0.668,0.667,0.667,0.667,0.668,0.667,0.667,0.666,0.666,0.666,0.665,0.664,0.664,0,0,0,0,0,0,0,0,0,0,0,0,0,0,0,0,0,0,0.639,0.64,0.64,0.641,0.642,0.642,0.642,0.642,0.642,0.642,0.641,0.641,0.64,0.64,0.639,0.639,0.639,0.639,0.639,0.64,0.64,0.64,0.641,0.642,0.642,0.643,0.643,0.644,0.644,0.645,0.646,0.647,0.648,0.649,0,0,0,0,0,0,0,0,0,0,0,0,0,0,0,0,0,0,0,0,0,0,0,0,0,0,0,0,0,0.663,0.662,0.659,0.657,0.654,0.652,0.651,0.65,0.649,0.649,0.649,0.65,0.65,0,0,0,0,0,0,0,0,0,0,0,0,0,0,0,0,0,0,0,0.638,0.638,0.638,0.637,0.637,0.635,0.634,0.632,0.628,0.625,0.622,0.619,0,0,0,0,0,0,0,0,0,0,0,0
0,0,0,0,0,0,0,1.939,1.939,1.945,1.945,1.939,1.951,1.945,1.957,1.957,1.963,1.963,1.963,1.97,1.97,0,0,0,0,0,0,0,0,0,0,0,0,0,0,0,0,0,0,0,0,0,0,0.613,0.614,0.615,0.615,0.616,0.616,0.616,0.616,0.616,0.616,0.616,0.616,0.616,0.616,0.616,0.616,0.617,0.617,0.617,0.618,0.618,0.619,0.62,0.62,0.622,0.623,0.625,0.626,0.627,0.628,0.63,0.632,0.632,0.634,0.636,0.637,0.639,0.642,0.643,0.645,0.648,0.65,0.654,0.661,0,0,0.683,0.691,0.698,0.704,0.708,0.711,0.712,0.714,0.715,0.715,0.716,0.716,0.716,0.716,0.717,0.719,0.72,0.72,0.721,0.723,0.726,0.728,0.732,0.737,0.743,0.749,0.756,0.764,0.772,0.779,0.787,0.795,0.799,0.804,0.809,0.809,0.809,0.808,0.808,0.807,0.807,0.805,0.803,0.803,0.802,0.801,0.8,0.797,0.796,0.794,0.793,0.792,0.79,0.788,0.786,0.786,0.784,0.783,0.783,0.783,0.783,0.783,0.783,0.784,0.784,0.785,0.785,0.784,0.784,0.783,0.781,0.78,0.778,0.776,0.772,0.77,0.766,0.764,0.762,0.76,0.757,0.756,0.754,0.752,0.751,0.75,0.749,0.748,0.745,0.744,0.74,0.737,0.734,0.732,0.728,0.724,0.72,0.718,0.715,0.711,0.709,0.706,0.703,0.701,0.698,0.697,0.694,0.693,0.692,0.691,0.691,0.69,0.69,0.688,0.687,0.686,0.685,0.684,0.684,0.683,0.681,0.681,0.681,0.678,0.676,0.674,0.672,0,0,0,0,0,0,0,0,0,0,0,0,0,0,0,0,0.672,0.678,0.684,0.687,0.692,0.697,0.701,0.704,0.707,0.709,0.709,0.709,0.708,0.706,0.705,0.702,0.7,0.696,0.692,0.688,0.685,0.682,0.678,0.676,0.673,0.671,0.669,0.668,0.667,0.667,0.667,0.667,0.667,0.667,0.667,0.668,0.669,0.669,0.669,0.669,0.668,0.668,0.667,0,0,0,0,0,0,0,0,0,0,0,0,0,0,0,0,0,0,0,0,0,0,0,0,0,0,0,0,0,0,0.386,0.386,0.386,0.386,0.387,0,0,0,0.387,0.387,0.387,0.387,0.387,0.387,0.386,0.385,0.385,0.384,0.382,0.381,0,0,0.379,0,0.378,0.378,0.378,0.377,0,0,0.376,0.375,0.375,0.375,0.375,0.375,0.375,0.374,0.375,0.375,0,0,0,0,0,0,0,0,0.549,0.548,0.549,0.55,0.551,0.552,0.555,0.557,0.559,0.562,0.564,0.565,0.566,0.567,0.569,0.57,0.57,0.571,0.571,0.572,0.573,0.574,0.574,0.575,0.577,0.578,0.579,0.581,0.581,0.583,0.585,0.586,0.588,0.589,0.589,0.588,0.588,0.588,0.589,0.588,0.588,0.589,0.589,0.59,0.591,0.591,0.592,0.593,0.593,0.594,0.596,0.598,0.601,0.603,0.606,0.609,0.612,0.615,0.617,0.619,0.62,0.621,0.623,0.625,0.628,0.63,0.633,0.635,0.638,0.64,0.642,0.644,0.644,0.644,0.644,0.644,0.643,0.643,0.642,0.642,0.642,0.642,0.641,0.64,0.64,0.641,0.641,0.642,0.642,0.64,0.638,0.637,0.636,0.632,0.629,0.625,0.621,0.616,0.614,0.611,0.61,0,0.61,0,0,0,0,0,0,0,0,0,0.519,0.517,0.515,0.513,0.511,0.509,0.507,0.505,0.503,0,0,0,0,0.667,0.667,0.666,0.665,0.665,0.665,0.665,0.665,0.665,0.664,0.664,0.663,0.663,0.662,0.661,0.66,0.659,0,0,0,0,0,0,0,0,0,0,0,0,0,0,0,0,0,0.637,0.638,0.638,0.638,0.639,0.64,0.64,0.64,0.64,0.638,0.638,0.638,0.637,0.637,0.637,0.636,0.636,0.636,0.636,0.636,0.637,0.638,0.638,0.638,0.639,0.64,0.64,0.64,0.641,0.642,0.642,0.643,0.644,0.645,0,0,0,0,0,0,0,0,0,0,0,0,0,0,0,0,0,0,0,0,0,0,0,0,0,0,0,0,0,0.659,0.657,0.655,0.652,0.65,0.649,0.648,0.646,0.646,0.646,0.646,0.646,0.648,0,0,0,0,0,0,0,0,0,0,0,0,0,0,0,0,0,0,0,0.638,0.638,0.638,0.638,0.637,0.636,0.634,0.632,0.629,0.625,0.623,0.62,0,0,0,0,0,0,0,0,0,0,0,0
0,0,0,0,0,0,0,0,1.927,1.933,1.933,1.933,1.939,1.939,1.945,1.951,1.957,1.957,1.963,1.963,1.963,0,0,0,0,0,0,0,0,0,0,0,0,0,0,0,0,0,0,0,0,0,0,0.612,0.612,0.613,0.614,0.614,0.614,0.615,0.615,0.615,0.615,0.615,0.615,0.615,0.615,0.615,0.615,0.615,0.615,0.616,0.616,0.616,0.616,0.617,0.618,0.619,0.62,0.621,0.622,0.624,0.625,0.626,0.628,0.629,0.63,0.632,0.634,0.636,0.639,0.642,0.644,0.647,0.65,0.655,0.661,0,0,0.681,0.687,0.694,0.698,0.701,0.703,0.705,0.706,0.708,0.709,0.71,0.71,0.711,0.713,0.715,0.716,0.717,0.718,0.72,0.72,0.723,0.725,0.727,0.73,0.733,0.74,0.744,0.752,0.759,0.766,0.775,0.783,0.79,0.797,0.802,0.803,0.804,0.804,0.805,0.804,0.803,0.801,0.8,0.799,0.798,0.797,0.795,0.793,0.791,0.789,0.787,0.786,0.783,0.781,0.779,0.779,0.778,0.777,0.777,0.775,0.776,0.775,0.776,0.776,0.777,0.777,0.777,0.777,0.776,0.776,0.773,0.772,0.768,0.766,0.763,0.761,0.758,0.755,0.754,0.753,0.752,0.752,0.751,0.75,0.749,0.749,0.749,0.748,0.746,0.743,0.74,0.737,0.734,0.732,0.728,0.724,0.72,0.717,0.715,0.711,0.709,0.706,0.702,0.7,0.698,0.695,0.694,0.692,0.691,0.691,0.689,0.689,0.687,0.686,0.684,0.684,0.683,0.682,0.681,0.68,0.679,0.679,0.678,0.675,0.672,0.669,0.666,0.664,0.661,0.658,0.655,0,0,0,0,0,0,0,0,0,0,0,0.667,0.669,0.675,0.678,0.682,0.687,0.691,0.694,0.697,0.699,0.701,0.702,0.702,0.701,0.699,0.697,0.695,0.692,0.689,0.685,0.682,0.678,0.676,0.673,0.671,0.669,0.667,0.667,0.665,0.664,0.664,0.664,0.664,0.665,0.665,0.667,0.667,0.668,0.668,0.669,0.667,0.667,0,0,0,0,0,0,0,0,0,0,0,0,0,0,0,0,0,0,0,0,0,0,0,0,0,0,0,0.384,0.384,0.384,0.385,0.385,0.385,0.385,0.386,0.386,0.386,0.386,0.386,0.386,0.386,0.386,0.386,0.386,0.386,0.385,0.385,0.384,0.383,0.382,0.381,0,0,0.379,0.378,0.378,0.377,0.377,0.377,0.377,0.376,0.376,0.375,0.375,0.374,0.374,0.374,0.374,0.374,0.373,0.373,0.373,0.373,0.374,0,0,0.374,0,0,0,0,0,0.549,0.55,0.552,0.553,0,0.558,0.56,0.562,0.565,0.565,0.566,0.567,0.569,0.569,0.57,0.571,0.571,0.572,0.573,0.573,0.574,0.574,0.575,0.577,0.578,0.579,0.58,0.582,0.584,0.585,0.587,0.588,0.588,0.588,0.588,0.588,0.588,0.588,0.588,0.588,0.589,0.59,0.591,0.591,0.593,0.593,0.594,0.596,0.597,0.599,0.601,0.604,0.606,0.608,0.612,0.615,0.618,0.62,0.621,0.622,0.623,0.625,0.628,0.63,0.632,0.634,0.635,0.637,0.639,0.641,0.641,0.642,0.642,0.642,0.642,0.641,0.64,0.64,0.639,0.639,0.638,0.638,0.638,0.638,0.638,0.638,0.638,0.636,0.635,0.632,0.63,0.627,0.624,0.621,0.617,0.613,0,0.608,0.606,0.605,0.606,0,0.605,0,0,0,0,0,0,0,0,0,0.514,0.512,0.51,0.508,0.506,0.504,0.502,0.501,0,0,0,0,0,0.665,0.664,0.664,0.664,0.664,0.664,0.664,0.663,0.662,0.661,0.66,0.659,0.659,0.657,0,0.654,0,0,0,0,0,0,0,0,0,0,0,0,0,0.631,0.632,0.633,0.634,0.634,0.635,0.636,0.636,0.636,0.637,0.636,0.636,0.636,0.636,0.636,0.635,0.634,0.634,0.634,0.634,0.634,0.634,0.634,0.634,0.634,0.634,0.635,0.636,0.636,0.636,0.637,0.638,0.638,0.638,0.64,0.64,0,0,0,0,0,0,0,0,0,0,0,0,0,0.889,0.889,0.891,0.889,0.891,0.892,0,0,0,0,0,0,0,0,0,0.658,0.657,0.654,0.652,0.65,0.648,0.645,0.644,0,0.642,0.642,0.642,0.643,0.644,0.646,0.647,0.648,0,0,0,0,0,0,0,0,0,0,0,0,0,0,0,0,0,0.638,0.638,0.638,0.638,0.638,0.637,0.636,0.634,0.63,0.627,0,0.621,0,0,0,0,0,0,0,0,0,0,0,0
0,0,0,0,0,0,0,0,0,0,1.939,1.939,1.951,1.945,1.957,1.945,1.951,1.951,0,0,0,0,0,0,0,0,0,0,0,0,0,0,0,0,0,0,0,0,0,0,0,0.61,0.611,0.61,0.611,0.612,0.612,0.612,0.612,0.612,0.613,0.613,0.613,0.613,0.613,0.613,0.613,0.613,0.613,0.613,0.613,0.614,0.614,0.615,0.615,0.615,0.616,0.616,0.617,0.618,0.62,0.621,0.622,0.623,0.625,0.626,0.628,0.63,0.632,0.635,0.638,0.64,0.644,0.646,0.65,0.655,0.661,0.667,0.672,0.678,0.685,0.691,0.694,0.698,0.699,0.701,0.702,0.705,0.706,0.706,0.707,0.709,0.71,0.711,0.713,0.715,0.716,0.716,0.717,0.719,0.72,0.722,0.724,0.726,0.729,0.734,0,0.746,0.753,0.762,0.773,0.781,0.79,0.796,0.799,0.8,0.802,0.803,0.802,0.801,0.8,0.798,0.797,0.796,0.796,0.793,0.789,0.787,0.785,0.782,0.78,0.777,0.776,0.774,0.773,0.772,0.772,0.77,0.771,0.77,0.77,0.771,0.771,0.771,0.772,0.772,0.771,0.77,0.768,0.766,0.762,0.76,0.756,0.754,0.751,0.749,0.749,0.748,0.748,0.749,0.748,0.749,0.749,0.749,0.748,0.748,0.747,0.745,0.742,0.74,0.738,0.735,0.732,0.728,0.725,0.72,0.717,0.714,0.711,0.709,0.705,0.702,0.699,0.697,0.694,0.692,0.691,0.69,0.689,0.688,0.687,0.686,0.684,0.684,0.682,0.681,0.679,0.679,0.678,0.676,0.676,0.674,0.67,0.666,0,0.662,0.659,0.657,0.655,0.652,0.65,0,0,0,0,0,0,0,0,0.662,0.663,0.664,0.666,0.669,0.672,0.677,0.679,0.683,0.686,0.689,0.691,0.694,0.694,0.694,0.693,0.691,0.689,0.687,0.684,0.682,0.678,0.675,0.672,0.669,0.667,0.666,0.664,0.664,0.663,0.663,0.663,0.663,0.663,0.664,0.664,0.664,0.665,0.666,0.667,0.667,0.667,0.666,0.665,0,0,0,0,0,0,0,0,0,0,0,0,0,0,0,0,0,0,0,0,0,0,0,0,0,0,0,0,0,0,0.384,0.384,0.384,0.385,0.385,0.385,0.385,0.385,0.385,0.385,0.385,0.385,0.385,0.385,0.384,0.384,0.383,0.383,0.382,0.381,0.38,0.379,0.378,0.378,0.378,0.377,0.377,0.377,0.376,0.376,0.376,0.375,0.374,0.374,0.373,0.373,0.373,0.373,0.373,0.372,0.372,0.372,0.372,0.372,0.372,0.372,0.373,0.373,0,0,0,0,0,0,0,0.553,0,0.558,0.56,0.562,0.564,0.565,0.566,0.567,0.569,0.569,0.57,0.57,0.571,0.572,0.572,0.573,0.573,0.574,0.575,0.576,0.577,0.578,0.579,0.581,0.583,0.584,0.586,0.587,0.587,0.586,0.587,0.587,0.587,0.587,0.588,0.588,0.588,0.59,0.591,0.592,0.593,0.594,0.595,0.596,0.598,0.6,0.602,0.604,0.607,0.609,0.612,0.615,0.617,0.62,0.621,0.622,0.623,0.625,0.626,0.629,0.63,0.632,0.633,0.634,0.636,0.638,0.639,0.64,0.64,0.64,0.639,0.639,0.638,0.638,0.637,0.637,0.636,0.636,0.635,0.635,0.634,0.634,0.633,0.632,0.63,0.627,0.625,0.621,0.618,0.615,0.612,0.609,0.607,0.605,0.603,0.603,0.603,0.603,0.602,0.6,0.601,0,0,0,0,0,0,0,0,0.511,0,0.507,0.506,0.504,0.502,0.5,0,0,0,0,0,0,0,0,0.664,0.664,0.663,0.662,0.662,0.661,0.659,0.658,0.657,0.656,0.654,0.654,0.651,0.648,0.644,0.641,0,0,0,0,0,0,0,0,0,0,0.626,0.628,0.628,0.63,0.631,0.631,0.632,0.632,0.632,0.633,0.633,0.633,0.633,0.632,0.632,0.632,0.632,0.631,0.63,0.63,0.63,0.63,0.63,0.63,0.63,0.63,0.631,0.632,0.632,0.632,0.633,0.634,0.634,0.636,0.636,0.636,0.637,0,0,0,0,0,0,0,0,0,0,0,0.888,0.889,0.891,0.891,0.891,0.892,0.893,0,0,0,0,0,0,0,0,0.655,0.655,0.652,0.65,0.646,0.643,0.64,0.639,0,0,0.637,0.637,0.638,0.639,0.641,0.643,0.645,0.646,0,0,0,0,0,0,0,0,0,0,0,0,0,0,0,0,0,0.638,0.638,0.638,0.638,0.638,0.637,0.636,0,0,0,0,0,0,0,0,0,0,0,0,0,0,0,0,0
0,0,0,0,0,0,0,0,0,0,0,0,0,0,0,0,0,0,0,0,0,0,0,0,0,0,0,0,0,0,0,0,0,0,0,0,0,0,0,0,0.61,0.609,0.61,0.61,0.61,0.61,0.61,0.611,0.611,0.611,0.612,0.612,0.612,0.612,0.612,0.612,0.612,0.612,0.613,0.613,0.613,0.612,0.612,0.613,0.613,0.613,0.613,0.614,0.615,0.616,0.617,0.618,0.62,0.621,0.622,0.624,0.626,0.628,0.63,0.632,0.636,0.64,0.643,0.646,0.65,0.655,0.661,0.666,0.671,0.677,0.681,0.686,0.689,0.692,0.694,0.695,0.697,0.698,0.7,0.701,0.702,0.703,0.705,0.706,0.708,0.71,0.711,0.712,0.714,0.714,0.715,0.716,0.717,0.719,0.72,0.723,0.726,0.73,0.737,0.745,0.755,0.763,0,0,0.788,0.793,0.797,0.801,0.8,0.799,0.798,0.797,0.795,0.794,0.793,0.79,0.786,0.783,0.779,0.776,0.773,0.771,0.769,0.768,0.767,0.767,0.766,0.765,0.765,0.765,0.765,0.766,0.766,0.766,0.765,0.764,0.762,0.762,0.76,0.756,0.752,0.749,0.747,0.745,0.743,0.743,0.742,0.743,0.743,0.744,0.746,0.746,0.746,0.746,0.746,0.746,0.745,0.742,0.74,0.738,0.735,0.733,0.731,0.727,0.723,0.72,0.717,0.714,0.711,0.708,0.705,0.701,0.698,0.695,0.694,0.691,0.689,0.688,0.687,0.686,0.685,0.684,0.683,0.682,0.681,0.68,0.678,0.677,0.676,0.675,0.673,0.671,0.667,0.663,0,0,0.657,0.654,0.653,0.651,0.652,0,0,0,0,0,0,0,0.662,0.663,0.663,0.664,0.665,0.668,0.669,0.672,0.675,0.678,0.681,0.683,0.684,0.686,0.687,0.687,0.687,0.685,0.684,0.682,0.679,0.677,0.674,0.671,0.668,0.667,0.665,0.664,0.663,0.662,0.662,0.662,0.662,0.662,0.663,0.663,0.663,0.664,0.664,0.665,0.665,0.665,0.665,0.664,0,0,0,0,0,0,0,0,0,0,0,0,0,0,0,0,0,0,0,0,0,0,0,0,0,0,0,0,0.384,0.383,0.384,0.383,0.384,0.384,0.384,0.384,0.384,0.384,0.384,0.384,0.384,0.384,0.383,0.383,0.383,0.383,0.382,0.382,0.381,0.381,0.38,0.379,0.378,0.378,0.377,0.377,0.377,0.376,0.376,0.376,0.375,0.375,0.374,0.374,0.373,0.372,0.372,0.372,0.372,0.372,0.372,0.371,0.371,0.371,0.371,0.371,0.371,0.372,0.372,0.372,0.372,0.373,0.373,0.374,0,0,0,0,0.557,0.56,0.562,0.564,0.565,0.566,0.567,0.568,0.569,0.57,0.57,0.571,0.572,0.573,0.573,0.573,0.574,0.574,0.575,0.577,0.578,0.579,0.58,0.582,0.584,0.585,0.586,0.586,0.586,0.586,0.586,0.586,0.587,0.587,0.588,0.589,0.59,0.591,0.593,0.594,0.595,0.596,0.597,0.599,0.601,0.603,0.605,0.607,0.609,0.612,0.615,0.616,0.619,0.621,0.622,0.623,0.624,0.626,0.627,0.628,0.63,0.631,0.632,0.633,0.634,0.636,0.636,0.637,0.636,0.637,0.636,0.636,0.636,0.635,0.634,0.634,0.633,0.632,0.632,0.631,0.63,0.628,0.626,0.625,0.622,0.619,0.616,0.613,0.61,0.607,0.605,0.603,0.601,0.601,0.601,0.601,0.6,0.6,0.598,0.598,0.597,0.597,0,0,0,0,0,0,0,0,0.507,0.505,0.503,0.501,0.499,0,0,0,0,0,0,0,0,0,0.662,0.662,0.661,0.66,0.659,0.657,0.655,0.654,0.652,0.65,0.648,0.645,0.64,0,0,0,0,0,0,0,0,0,0,0,0,0.623,0.624,0.625,0.626,0.627,0.628,0.628,0.629,0.629,0.629,0.629,0.629,0.629,0.628,0.628,0.628,0.628,0.627,0.627,0.626,0.626,0.626,0.626,0.626,0.626,0.626,0.626,0.627,0.627,0.628,0.628,0.63,0.63,0.631,0.632,0.632,0.632,0.633,0,0,0,0,0,0,0,0,0,0,0.889,0.889,0.891,0.892,0.893,0.892,0.893,0,0,0,0,0,0,0,0,0,0.65,0.647,0.644,0.641,0.638,0.635,0.633,0.632,0.632,0.632,0.633,0.634,0.636,0.638,0.641,0.643,0,0,0,0,0,0,0,0,0,0,0,0,0,0,0,0,0,0,0.639,0.638,0.638,0.638,0.638,0.638,0.637,0.636,0,0,0,0,0,0,0,0,0,0,0,0,0,0,0,0
0,0,0,0,0,0,0,0,0,0,0,0,0,0,0,0,0,0,0,0,0,0,0,0,0,0,0,0,0,0,0,0,0,0,0,0,0,0,0,0,0.608,0.608,0.608,0.608,0.608,0.608,0.608,0.609,0.609,0.609,0.61,0.61,0.61,0.611,0.611,0.611,0.612,0.612,0.612,0.612,0.612,0.612,0.612,0.612,0.612,0.612,0.612,0.613,0.613,0.615,0.615,0.616,0.618,0.619,0.62,0.622,0.624,0.626,0.628,0.632,0.635,0.638,0.642,0.645,0.649,0.655,0.661,0.666,0.669,0.675,0.679,0.682,0.685,0.687,0.689,0.691,0.691,0.693,0.694,0.695,0.697,0.698,0.7,0.702,0.704,0.706,0.707,0.708,0.709,0.71,0.71,0.71,0.71,0.711,0.712,0.713,0.715,0.717,0,0,0,0,0.749,0,0,0,0,0,0,0,0,0,0,0,0,0,0,0.778,0.774,0.771,0.768,0.767,0.765,0.764,0.763,0.763,0.763,0.763,0.763,0.763,0.763,0.763,0.763,0.762,0.761,0.761,0.759,0.757,0.754,0.75,0.748,0.744,0.741,0.74,0.739,0.738,0.738,0.738,0.739,0.74,0.742,0.743,0.743,0.743,0.743,0.743,0.741,0.739,0.737,0.735,0.732,0.731,0.728,0.725,0.721,0.719,0.716,0.713,0.709,0.706,0.702,0.698,0.694,0.692,0.689,0.687,0.686,0.685,0.684,0.684,0.684,0.683,0.681,0.681,0.678,0.678,0.677,0.675,0.674,0.672,0.67,0.667,0.664,0.66,0.659,0.657,0.654,0.653,0.652,0.652,0.652,0,0,0,0,0,0.662,0.662,0.662,0.662,0.662,0.663,0.664,0.665,0.667,0.668,0.669,0.672,0.674,0.675,0.677,0.679,0.679,0.68,0.68,0.679,0.678,0.677,0.674,0.672,0.669,0.667,0.665,0.663,0.662,0.661,0.661,0.661,0.66,0.661,0.661,0.662,0.662,0.662,0.662,0.664,0.664,0.665,0.664,0.664,0.664,0.663,0.662,0,0,0,0,0,0,0,0,0,0,0,0,0,0,0,0,0,0,0,0,0,0,0,0,0,0.385,0.384,0.383,0.383,0.383,0.383,0.383,0.383,0.383,0.383,0.383,0.383,0.383,0.383,0.382,0.382,0.382,0.381,0.381,0.381,0.38,0.38,0.379,0.378,0.377,0.377,0.376,0.376,0.376,0.376,0.376,0.375,0.375,0.375,0.374,0.374,0.373,0.372,0.372,0.371,0.371,0.371,0.371,0.371,0.37,0.37,0.37,0.37,0.37,0.37,0.37,0.37,0.371,0.371,0.371,0.371,0.372,0.372,0.372,0.371,0.371,0,0,0,0,0,0.565,0.566,0.566,0.568,0.569,0.57,0.57,0.571,0.572,0.573,0.573,0.573,0.574,0.574,0.575,0.577,0.578,0.579,0.58,0.581,0.583,0.585,0.585,0.586,0.586,0.586,0.586,0.587,0.588,0.588,0.589,0.59,0.591,0.593,0.593,0.594,0.596,0.597,0.598,0.6,0.601,0.603,0.605,0.608,0.61,0.612,0.614,0.616,0.618,0.62,0.621,0.621,0.623,0.624,0.625,0.626,0.626,0.627,0.628,0.629,0.631,0.632,0.633,0.634,0.634,0.634,0.634,0.634,0.634,0.633,0.632,0.632,0.63,0.63,0.628,0.628,0.626,0.625,0.623,0.62,0.617,0.614,0.611,0.608,0.605,0.603,0.601,0.6,0.598,0.598,0.597,0.598,0.597,0.597,0.596,0.596,0.594,0.593,0.592,0.59,0.588,0,0,0,0,0,0,0.507,0.503,0.5,0,0,0,0,0,0,0,0,0,0,0,0,0,0.659,0.657,0.654,0.652,0.651,0.648,0.645,0.642,0.638,0.634,0.629,0.625,0.621,0.616,0,0,0,0,0,0,0,0,0.618,0.62,0.621,0.622,0.624,0.623,0.625,0.625,0.625,0.625,0.625,0.625,0.625,0.625,0.625,0.625,0.623,0.623,0.623,0.623,0.622,0.622,0.622,0.622,0.622,0.622,0.622,0.623,0.623,0.624,0.625,0.626,0.626,0.628,0.628,0.628,0.629,0,0,0,0,0,0,0,0,0,0,0.891,0.891,0.892,0.893,0.893,0.893,0.893,0,0,0,0,0,0,0,0,0,0.644,0.642,0.639,0.636,0.633,0.631,0.628,0.627,0.626,0.626,0.627,0.628,0.63,0.633,0.636,0.64,0.642,0,0,0,0,0,0,0,0,0,0,0,0,0,0,0,0,0,0,0,0.64,0.64,0.639,0.639,0.638,0.638,0,0,0,0,0,0,0,0,0,0,0,0,0,0,0,0,0
0,0,0,0,0,0,0,0,0,0,0,0,0,0,0,0,0,0,0,0,0,0,0,0,0,0,0,0,0,0,0,0,0,0,0,0,0,0,0,0,0.608,0.607,0.607,0.607,0.607,0.607,0.607,0.607,0.608,0.608,0.608,0.609,0.609,0.61,0.61,0.61,0.61,0.61,0.61,0.611,0.611,0.61,0.61,0.611,0.611,0.612,0.612,0.612,0.612,0.613,0.614,0.615,0.616,0.618,0.62,0.621,0.623,0.625,0.627,0.631,0.634,0.638,0.642,0.645,0.649,0.654,0.659,0.664,0.667,0.669,0.673,0.676,0.679,0.681,0.683,0.684,0.685,0.687,0.688,0.69,0.691,0.693,0.694,0.697,0.699,0.701,0.702,0.702,0.703,0.703,0.703,0.703,0.704,0.703,0.704,0.705,0.705,0.706,0.707,0.707,0,0.714,0.72,0,0,0,0,0,0,0,0,0,0,0,0,0,0,0,0,0,0.764,0.763,0.762,0.762,0.762,0.762,0.762,0.762,0.762,0.762,0.761,0.761,0.76,0.759,0.757,0.755,0.752,0.749,0.747,0.743,0.74,0.737,0.734,0.733,0.732,0.732,0.732,0.732,0.733,0.735,0.737,0.738,0.739,0.739,0.74,0.74,0.738,0.734,0.732,0.732,0.729,0.727,0.726,0.723,0.72,0.716,0.713,0.71,0.706,0.701,0.698,0.693,0.69,0.687,0.685,0.684,0.681,0.681,0.681,0.681,0.681,0.681,0.68,0.678,0.678,0.676,0.675,0.674,0.672,0.67,0,0,0,0,0,0.654,0.652,0.652,0.651,0,0,0,0,0,0,0.662,0.663,0.662,0.662,0.662,0.662,0.663,0.664,0.664,0.665,0.667,0.667,0.669,0.669,0.671,0.672,0.673,0.674,0.674,0.674,0.674,0.673,0.672,0.669,0.668,0.666,0.664,0.662,0.661,0.66,0.659,0.659,0.659,0.659,0.659,0.66,0.661,0.662,0.662,0,0,0,0,0,0,0,0,0,0,0,0,0,0,0,0,0,0,0,0,0,0,0,0,0,0,0,0,0,0,0,0,0.386,0.385,0.385,0.384,0.383,0.382,0.382,0.382,0.382,0.382,0.382,0.381,0.381,0.381,0.381,0.381,0.38,0.38,0.38,0.379,0.379,0.378,0,0.377,0.376,0.376,0.375,0.375,0.375,0.375,0.374,0.375,0.375,0.374,0.374,0.374,0.373,0.373,0.372,0.371,0.371,0.37,0.37,0.37,0.37,0.369,0.369,0.369,0.369,0.369,0.369,0.369,0.369,0.37,0.37,0.37,0.37,0.37,0.37,0,0,0.37,0.37,0.37,0.369,0,0,0.368,0,0,0.566,0.568,0.569,0.57,0.57,0.571,0.572,0.573,0.573,0.574,0.574,0.574,0.575,0.576,0.577,0.578,0.579,0.581,0.583,0.584,0.585,0.586,0.586,0.586,0.588,0.588,0.589,0.589,0.59,0.591,0.593,0.594,0.595,0.596,0.596,0.597,0.598,0.6,0.602,0.604,0.606,0.608,0.61,0.612,0.613,0.615,0.617,0.619,0.62,0.62,0.621,0.622,0.623,0.624,0.624,0.625,0.625,0.626,0.627,0.628,0.629,0.63,0.63,0.63,0.631,0.631,0.63,0.63,0.63,0.629,0.628,0.627,0.625,0.624,0.623,0.621,0.618,0.615,0.612,0.609,0.605,0.603,0.6,0.598,0.597,0.595,0.593,0.593,0.593,0.593,0.594,0.593,0.593,0.592,0.591,0.591,0.589,0.587,0.585,0.583,0.581,0,0,0,0,0,0,0,0,0,0,0,0,0,0,0,0,0,0,0,0,0,0.656,0.652,0.65,0.648,0,0.64,0.637,0.632,0.628,0.624,0.62,0.616,0.612,0.609,0.607,0.606,0,0,0,0.612,0.614,0.615,0.616,0.618,0.619,0.62,0.62,0.621,0.621,0.621,0.621,0.621,0.621,0.621,0.62,0.62,0.62,0.62,0.619,0.618,0.618,0.618,0.618,0.618,0.618,0.618,0.618,0.618,0.619,0.62,0.62,0.621,0.621,0.623,0.624,0.625,0.626,0,0,0,0,0,0,0,0,0,0,0,0.892,0.892,0.893,0.895,0.895,0.895,0.895,0.896,0,0,0,0,0,0,0,0,0,0.636,0.633,0.632,0,0.626,0.623,0.622,0.622,0.622,0.623,0.625,0.628,0.632,0,0,0,0,0,0,0,0,0,0,0,0,0,0,0,0,0,0,0,0,0,0,0,0,0.64,0,0.639,0,0,0,0,0,0,0,0,0,0,0,0,0,0,0,0,0,0
0,0,0,0,0,0,0,0,0,0,2.488,0,0,0,0,0,0,0,0,0,0,0,0,0,0,0,0,0,0,0,0,0,0,0,0,0,0,0,0,0,0.607,0.606,0.606,0.606,0.606,0.606,0.606,0.606,0.607,0.607,0.607,0.608,0.608,0.61,0.609,0.61,0.61,0.61,0.61,0.61,0.61,0.61,0.61,0.61,0.61,0.61,0.611,0.611,0.612,0.612,0.613,0.615,0.616,0.618,0.619,0.621,0.623,0.625,0.627,0.631,0.634,0.638,0.642,0.645,0.649,0.653,0.658,0.662,0.664,0.667,0.669,0.672,0.674,0.675,0.678,0.678,0.68,0.681,0.683,0.684,0.686,0.687,0.689,0.691,0.694,0.695,0.697,0.698,0.698,0.698,0.698,0.698,0.697,0.697,0.697,0.698,0.697,0.697,0,0,0.696,0,0,0,0,0,0,0,0,0,0,0,0,0,0,0,0,0,0,0,0.76,0.76,0.759,0.758,0.758,0.759,0.76,0.759,0.76,0.759,0.759,0.757,0.756,0.754,0.752,0.749,0.746,0.741,0.738,0.735,0.732,0.729,0.727,0.726,0.726,0.726,0.727,0.727,0.729,0.731,0.732,0.733,0.735,0.734,0.734,0.733,0.732,0.73,0.728,0.726,0.723,0.72,0.718,0.715,0.712,0.709,0.706,0.702,0.699,0.694,0.691,0.687,0.684,0.681,0.681,0.678,0.678,0.678,0.678,0.678,0.678,0.678,0.678,0.677,0.676,0.675,0.674,0.672,0.671,0.669,0,0,0,0.656,0.653,0.652,0.65,0.65,0,0,0,0,0,0,0.662,0.662,0.663,0.664,0.663,0.663,0.663,0.663,0.664,0.664,0.664,0.664,0.665,0.665,0.666,0.667,0.668,0.669,0.669,0.669,0.669,0.669,0.668,0.667,0.665,0.664,0.662,0.661,0.66,0.659,0.659,0.658,0.658,0.658,0.659,0.659,0.66,0.661,0.661,0,0,0,0,0,0,0,0,0,0,0,0,0,0,0,0,0,0,0,0,0,0,0.387,0.387,0.387,0,0.387,0.387,0,0,0,0.386,0.386,0.385,0.385,0.384,0.383,0.382,0.381,0.381,0.38,0.38,0.38,0.379,0.379,0.379,0.379,0.378,0.378,0.378,0.378,0.377,0.377,0.377,0.377,0.376,0.375,0.374,0.374,0.374,0.373,0.373,0.373,0.373,0.373,0.373,0.373,0.373,0.372,0.372,0.371,0.371,0.37,0.369,0.369,0.369,0.368,0.368,0.368,0.368,0.368,0.368,0.368,0.368,0.368,0.368,0.369,0.369,0.369,0.369,0.369,0.369,0.37,0,0.37,0.369,0.369,0.369,0.369,0.368,0.367,0.367,0,0,0,0.569,0.57,0.57,0.571,0.572,0.573,0.573,0.573,0.574,0.574,0.575,0.575,0.577,0.578,0.579,0.581,0.583,0.584,0.585,0.586,0.586,0.587,0.588,0.589,0.59,0.591,0.591,0.593,0.594,0.596,0.596,0.597,0.597,0.598,0.6,0.601,0.603,0.604,0.607,0.608,0.61,0.612,0.613,0.615,0.616,0.618,0.619,0.619,0.62,0.62,0.621,0.621,0.622,0.623,0.623,0.624,0.625,0.625,0.626,0.626,0.627,0.627,0.627,0.627,0.627,0.626,0.626,0.626,0.625,0.624,0.623,0.621,0.619,0.616,0.614,0.611,0.607,0.604,0.601,0.598,0.596,0.594,0.593,0.591,0.59,0.59,0.59,0.59,0.59,0.59,0.59,0.589,0.589,0.589,0.587,0.585,0.583,0.581,0.579,0.577,0.574,0.572,0.571,0,0,0,0,0,0,0,0,0,0,0,0,0,0,0,0,0,0,0,0,0,0.641,0.636,0.632,0.628,0.623,0.62,0,0,0.61,0,0,0,0,0,0.606,0.607,0.61,0.611,0.612,0.613,0.615,0.615,0.616,0.616,0.616,0.616,0.617,0.617,0.617,0.617,0.616,0.616,0.616,0.616,0.615,0.614,0.614,0.613,0.613,0.613,0.613,0.614,0.614,0.614,0.615,0.616,0.616,0.618,0.618,0.62,0.621,0.621,0,0,0,0,0,0,0,0,0,0,0,0,0.893,0.893,0.895,0.895,0.895,0.895,0.896,0.896,0,0,0,0,0,0,0,0,0,0,0,0,0.623,0,0.618,0.618,0.618,0.619,0.621,0.622,0.625,0.628,0,0,0,0,0,0,0,0,0,0,0,0,0,0,0,0,0,0,0,0,0,0,0,0,0,0,0,0,0,0,0,0,0,0,0,0,0,0,0,0,0,0,0,0,0
0,0,0,0,0,0,2.571,2.55,2.55,2.55,2.54,2.529,0,0,0,0,0,0,0,0,0,0,0,0,0,0,0,0,0,0,0,0,0,0,0,0,0,0,0,0,0.606,0.605,0.605,0.604,0.605,0.604,0.605,0.605,0.605,0.605,0.607,0.607,0.608,0.608,0.608,0.609,0.609,0.61,0.61,0.61,0.61,0.61,0.61,0.61,0.61,0.611,0.611,0.612,0.612,0.613,0.613,0.615,0.616,0.618,0.62,0.621,0.623,0.625,0.628,0.632,0.635,0.638,0.642,0.645,0.648,0.652,0.657,0.659,0.662,0.664,0.666,0.667,0.669,0.671,0.672,0.673,0.675,0.677,0.677,0.678,0.681,0.682,0.684,0.686,0.687,0.69,0.691,0.692,0.692,0.692,0.692,0.692,0.692,0.692,0.691,0.691,0.691,0.689,0.689,0.687,0.687,0.685,0.684,0,0,0,0,0,0,0,0,0,0,0,0,0,0,0,0,0,0.756,0.756,0.756,0.756,0.756,0.758,0.757,0.757,0.757,0.756,0.755,0.752,0.75,0.747,0.744,0.74,0.737,0.732,0.729,0.726,0.722,0.721,0.72,0.72,0.72,0.72,0.721,0.722,0.723,0.726,0.727,0.728,0.729,0.729,0.729,0.729,0.727,0.726,0.723,0.72,0.718,0.715,0.713,0.71,0.706,0.702,0.699,0.695,0.693,0.688,0.685,0.681,0.678,0.676,0.675,0.675,0.674,0.674,0.674,0.675,0.676,0.675,0.675,0.675,0.674,0.672,0.672,0,0,0,0,0,0,0,0,0.651,0,0,0,0,0,0,0,0.661,0.662,0.664,0.664,0.664,0.664,0.664,0.664,0.664,0.664,0.664,0.664,0.664,0.663,0.664,0.664,0.664,0.664,0.664,0.664,0.664,0.664,0.663,0.662,0.662,0.661,0.659,0.659,0.658,0.657,0.657,0.657,0.657,0.657,0.657,0.658,0.659,0,0,0,0,0,0,0,0,0,0,0,0,0,0,0,0,0,0,0,0,0,0,0,0,0.387,0.386,0.386,0.387,0.387,0.387,0.387,0.386,0.386,0.386,0.386,0.386,0.385,0.385,0.384,0.382,0.381,0.38,0.38,0.379,0.378,0.377,0.377,0.377,0,0,0.375,0.375,0.375,0.375,0.375,0.374,0.374,0.374,0.373,0.373,0.372,0.372,0.371,0.371,0.372,0.372,0.372,0.372,0.372,0.372,0.371,0.37,0.37,0.369,0.369,0.368,0.368,0.368,0.367,0.367,0.367,0.367,0.367,0.367,0.367,0.367,0.367,0.367,0.367,0.367,0.368,0.368,0.368,0.368,0.368,0.369,0.369,0.369,0.369,0,0.368,0.368,0.368,0.367,0.367,0.366,0.366,0.366,0,0,0.571,0.571,0.572,0.573,0.573,0.574,0.574,0.574,0.575,0.576,0.577,0.578,0.579,0.581,0.583,0.585,0.586,0.587,0.588,0.589,0.59,0.591,0.592,0.593,0.594,0.594,0.596,0.597,0.597,0.597,0.598,0.599,0.6,0.602,0.603,0.605,0.607,0.608,0.61,0.611,0.612,0.613,0.615,0.616,0.617,0.617,0.618,0.618,0.619,0.619,0.62,0.62,0.621,0.621,0.621,0.622,0.622,0.623,0.623,0.623,0.623,0.623,0.623,0.623,0.622,0.622,0.621,0.62,0.619,0.617,0.615,0.613,0.61,0.607,0.604,0.601,0.598,0.595,0.593,0.591,0.589,0.588,0.587,0.586,0.586,0.586,0.586,0.586,0.586,0.586,0.586,0.586,0.584,0.583,0.581,0.58,0.578,0.575,0.573,0.571,0.569,0.566,0,0,0,0,0,0,0,0,0,0,0,0,0,0,0,0,0,0,0,0,0,0.632,0.626,0.622,0.618,0.615,0.612,0.608,0.605,0.603,0.602,0.601,0.602,0.601,0.603,0.604,0.605,0.607,0.607,0.608,0.609,0.61,0.611,0.612,0.612,0.612,0.612,0.612,0.612,0.612,0.612,0.612,0.611,0.611,0.61,0.61,0.609,0.609,0.608,0.609,0.609,0.609,0.609,0.61,0.611,0.612,0.612,0.613,0.614,0.615,0.616,0,0,0,0,0.623,0,0,0,0,0,0,0,0,0.896,0.896,0.896,0.896,0.896,0.896,0.896,0.896,0,0,0,0,0,0,0,0,0,0,0.62,0.618,0,0.615,0.615,0.614,0.615,0.617,0.618,0.62,0.623,0,0,0,0,0,0,0,0,0,0,0,0,0,0,0,0,0,0,0,0,0,0,0,0,0,0,0,0,0,0,0,0,0,0,0,0,0,0,0,0,0,0,0,0,0,0
0,0,0,0,0,0,2.561,2.55,2.55,2.55,2.529,2.529,2.529,0,0,0,0,0,0,0,0,0,0,0,0,0,0,0,0,0,0,0,0,0,0,0,0,0,0,0,0,0.604,0.604,0.604,0.604,0.604,0.604,0.604,0.605,0.605,0.605,0.607,0.607,0.608,0.608,0.609,0.609,0.61,0.61,0.61,0.61,0.61,0.61,0.611,0.612,0.612,0.612,0.613,0.613,0.615,0.615,0.616,0.618,0.62,0.621,0.623,0.625,0.626,0.628,0.632,0.636,0.638,0.642,0.645,0.648,0.652,0.655,0.657,0.659,0.661,0.662,0.664,0.666,0.667,0.669,0.669,0.67,0.671,0.672,0.673,0.675,0.677,0.678,0.681,0.682,0.684,0.685,0.686,0.686,0.687,0.686,0.686,0.686,0.686,0.685,0.685,0.684,0.684,0.682,0.681,0.68,0.678,0.675,0.674,0,0,0,0,0,0,0,0,0,0,0,0,0,0,0,0,0.752,0.753,0.753,0.753,0.753,0.755,0.756,0.754,0.754,0.753,0.749,0.748,0.743,0.74,0.736,0.732,0.728,0.723,0.72,0.718,0.715,0.715,0.714,0.713,0.714,0.714,0.715,0.716,0.718,0.719,0.72,0.722,0.723,0.724,0.723,0.722,0.721,0.719,0.715,0.712,0.709,0.706,0.703,0.701,0.697,0.693,0.69,0.687,0.684,0.681,0.678,0.675,0.672,0.671,0.67,0.669,0.67,0.67,0.671,0.671,0.672,0.673,0.673,0.672,0.672,0,0,0,0,0,0,0,0,0,0,0,0,0,0,0,0.657,0.659,0.661,0.662,0.663,0.664,0.664,0.664,0.664,0.664,0.664,0.664,0.664,0.663,0.663,0.662,0.662,0.662,0.661,0.661,0.66,0.659,0.659,0.659,0.659,0.658,0.657,0.657,0.656,0.656,0.655,0.656,0.656,0.655,0.655,0.656,0.657,0.657,0,0,0,0,0,0,0,0,0,0,0,0,0,0,0,0,0,0,0,0,0,0,0,0,0,0,0.386,0.385,0.386,0.386,0.386,0.386,0.386,0.385,0.385,0.385,0.385,0.385,0.384,0.384,0.382,0.381,0.38,0.379,0.378,0.377,0.376,0.375,0.374,0.374,0.373,0,0.372,0.372,0.372,0.372,0.372,0.371,0.371,0.371,0.37,0.37,0.369,0.369,0.37,0.37,0.37,0.37,0.37,0.37,0.37,0.369,0.369,0.368,0.368,0.368,0.367,0.367,0.366,0.366,0.366,0.366,0.366,0.366,0.366,0.365,0.365,0.365,0.365,0.366,0.366,0.366,0.366,0.366,0.366,0.367,0.367,0.368,0.368,0.368,0.368,0.368,0.368,0.368,0.368,0.367,0.367,0.366,0,0.366,0.366,0,0,0,0,0.573,0.573,0.574,0.574,0.574,0.575,0.576,0.577,0.578,0.58,0.581,0.584,0.586,0.588,0.589,0.589,0.591,0.592,0.593,0.594,0.595,0.595,0.596,0.597,0.597,0.598,0.598,0.598,0.599,0.6,0.602,0.603,0.605,0.607,0.608,0.609,0.61,0.611,0.612,0.612,0.613,0.613,0.613,0.613,0.614,0.614,0.614,0.615,0.615,0.615,0.615,0.616,0.616,0.617,0.617,0.618,0.618,0.619,0.618,0.618,0.618,0.618,0.618,0.617,0.616,0.615,0.613,0.611,0.608,0.606,0.603,0.6,0.597,0.594,0.592,0.59,0.588,0.587,0.586,0.584,0.584,0.584,0.584,0.584,0.584,0.584,0.583,0.583,0.583,0.581,0.581,0.58,0.578,0.577,0.574,0.572,0.57,0.568,0.565,0,0,0,0,0,0,0,0,0,0,0,0,0,0,0,0,0,0,0,0,0,0,0.622,0.618,0.615,0.612,0.608,0.605,0.603,0.601,0.6,0.6,0.6,0.599,0.6,0.601,0.601,0.603,0.604,0.604,0.605,0.606,0.606,0.607,0.607,0.607,0.607,0.607,0.607,0.607,0.607,0.607,0.606,0.605,0.605,0.605,0.604,0.604,0.604,0.605,0.605,0.605,0.605,0.606,0.607,0.607,0.608,0.609,0.61,0.61,0.61,0,0,0,0,0,0,0,0,0,0,0,0,0,0,0.897,0.897,0.897,0.897,0.897,0,0,0,0,0,0,0,0,0,0,0.613,0.613,0.613,0.612,0.611,0.61,0.61,0.612,0.613,0.615,0.616,0.618,0,0,0,0,0,0,0,0,0,0,0,0,0,0,0,0,0,0,0,0,0,0,0,0,0,0,0,0,0,0,0,0,0,0,0,0,0,0,0,0,0,0,0,0,0,0,0
0,0,0,0,0,2.571,2.561,2.55,2.54,2.54,2.529,2.519,2.519,2.519,0,0,0,0,0,0,0,0,0,0,0,0,0,0,0,0,0,0,0,0,0,0,0,0,0,0,0,0.604,0.603,0.603,0.603,0.603,0.603,0.604,0.604,0.604,0.605,0.605,0.607,0.608,0.608,0.608,0.609,0.61,0.61,0.61,0.611,0.612,0.612,0.612,0.613,0.613,0.614,0.615,0.615,0.616,0.618,0.618,0.62,0.621,0.623,0.625,0.626,0.628,0.63,0.632,0.635,0.638,0.64,0.643,0.646,0.649,0.652,0.654,0.656,0.657,0.659,0.66,0.662,0.663,0.664,0.664,0.666,0.667,0.667,0.669,0.67,0.672,0.673,0.675,0.677,0.678,0.679,0.68,0.68,0.68,0.68,0.679,0.68,0.679,0.679,0.678,0.678,0.678,0.678,0.676,0.675,0.674,0.673,0.672,0.671,0,0,0,0,0,0,0,0,0,0,0,0,0,0,0,0.74,0,0.75,0.75,0.75,0.749,0.752,0.749,0.748,0.746,0.739,0.733,0,0,0.723,0.72,0.717,0.713,0.71,0.71,0.709,0.708,0.709,0.709,0.708,0.708,0.71,0.71,0.71,0.712,0.714,0.715,0.715,0.715,0.715,0.713,0.712,0.71,0.708,0.702,0.7,0.697,0.694,0.691,0.689,0.684,0.681,0.678,0.677,0.674,0.672,0.669,0.668,0.667,0.667,0.667,0.667,0.667,0.668,0.668,0.67,0.672,0.671,0.671,0.671,0,0,0,0,0,0,0,0,0,0,0,0,0,0,0.654,0.657,0.659,0.659,0.661,0.662,0.663,0.663,0.663,0.663,0.662,0.663,0.662,0.662,0.662,0.661,0.66,0.659,0.659,0.658,0.657,0.657,0.655,0.654,0.654,0.653,0.652,0.652,0.652,0.652,0.652,0.652,0.653,0.653,0.654,0.654,0.654,0.655,0,0,0,0,0,0,0,0,0,0,0,0,0,0,0,0,0,0,0,0,0,0,0,0,0.385,0.385,0.385,0.385,0.385,0.385,0.385,0.385,0.385,0.385,0.384,0.384,0.384,0.384,0.383,0.383,0.382,0.381,0.379,0.378,0.377,0.376,0.375,0.374,0.373,0.372,0.371,0.371,0.37,0.369,0.369,0.369,0.369,0.368,0.368,0.368,0.368,0.368,0.368,0.367,0.367,0.367,0.368,0.367,0.367,0.367,0.367,0.367,0.367,0.366,0.366,0.366,0.365,0.365,0.365,0.365,0.365,0.365,0.365,0.364,0.364,0.364,0.364,0.364,0.364,0.364,0.364,0.364,0.365,0.365,0.365,0.365,0.365,0.366,0.366,0.367,0.367,0.367,0.367,0.367,0.368,0.368,0.367,0.367,0.366,0.366,0.366,0.366,0.366,0.366,0.365,0,0,0,0.574,0.574,0.574,0.575,0.577,0.578,0.579,0.58,0.582,0.585,0.588,0.589,0.59,0.591,0.593,0.594,0.595,0.596,0.596,0.596,0.597,0.597,0.598,0.597,0.598,0.598,0.598,0.6,0.601,0.602,0.603,0.605,0.606,0.606,0.607,0.607,0.608,0.608,0.608,0.608,0.609,0.609,0.609,0.609,0.609,0.61,0.61,0.61,0.61,0.61,0.61,0.611,0.612,0.613,0.613,0.614,0.614,0.614,0.615,0.614,0.613,0.613,0.612,0.61,0.608,0.607,0.604,0.602,0.599,0.597,0.594,0.591,0.589,0.587,0.586,0.585,0.584,0.583,0.582,0.581,0.581,0.581,0.581,0.581,0.58,0.58,0.58,0.579,0.578,0.577,0.576,0.574,0.573,0.571,0.57,0.567,0.565,0.564,0.563,0.561,0.56,0.558,0,0,0,0,0,0,0,0,0,0,0,0,0,0,0,0,0.622,0,0.613,0.61,0.607,0.604,0.603,0.6,0.598,0.597,0.597,0.597,0.597,0.597,0.598,0.598,0.6,0.6,0.6,0.601,0.601,0.601,0.602,0.602,0.603,0.603,0.603,0.603,0.603,0.603,0.602,0.601,0.601,0.601,0.601,0.601,0.601,0.601,0.601,0.601,0.601,0.602,0.602,0.603,0.603,0.604,0.604,0.604,0.604,0.603,0,0,0,0,0,0,0,0,0,0,0,0,0,0,0,0,0,0,0,0,0,0,0,0,0,0,0,0,0,0.603,0.604,0.604,0.605,0.606,0.607,0.608,0.61,0.612,0.613,0.615,0,0,0,0,0,0,0,0,0,0,0,0,0,0,0,0,0,0,0,0,0,0,0,0,0,0,0,0,0,0,0,0,0,0,0,0,0,0,0,0,0,0,0,0,0,0,0,0
0,0,0,0,0,2.582,2.561,2.561,2.54,2.529,2.508,2.508,2.508,2.508,2.508,0,0,0,0,0,0,0,0,0,0,0,0,0,0,0,0,0,0,0,0,0,0,0,0,0,0,0.604,0.603,0.602,0.603,0.603,0.603,0.603,0.603,0.603,0.604,0.605,0.607,0.607,0.608,0.608,0.609,0.61,0.61,0.611,0.612,0.612,0.613,0.613,0.615,0.615,0.616,0.616,0.617,0.618,0.62,0.62,0.621,0.623,0.625,0.626,0.627,0.628,0.63,0.633,0.636,0.637,0.64,0.642,0.644,0.646,0.649,0.651,0.652,0.654,0.655,0.656,0.658,0.659,0.659,0.661,0.662,0.662,0.663,0.664,0.665,0.667,0.668,0.669,0.671,0.672,0.673,0.674,0.674,0.675,0.675,0.674,0.675,0.674,0.674,0.673,0.673,0.673,0.672,0.672,0.672,0.671,0.669,0.669,0.667,0.667,0,0.665,0,0,0,0,0,0,0,0,0,0,0,0,0.728,0,0.743,0.747,0.749,0.752,0.75,0.746,0.742,0.738,0,0,0,0.712,0.711,0.709,0.706,0.706,0.704,0.705,0.705,0.705,0.705,0.706,0.706,0.706,0.707,0.708,0.709,0.71,0.71,0.711,0.711,0.71,0.707,0.706,0.705,0.703,0.699,0.694,0.691,0,0.684,0.682,0.679,0.675,0.672,0.67,0.669,0.667,0.665,0.664,0.664,0.663,0.664,0.664,0.664,0.664,0.666,0.667,0.668,0.67,0.671,0.671,0.671,0,0,0,0,0,0,0,0,0,0,0,0,0,0.65,0.652,0.655,0.657,0.659,0.659,0.66,0.661,0.662,0.661,0.661,0.661,0.661,0.661,0.661,0.66,0.659,0.659,0.657,0.657,0.656,0.655,0.654,0.652,0.652,0.651,0.65,0.65,0.649,0.649,0.649,0.649,0.65,0.65,0.651,0.652,0,0,0,0,0,0,0,0,0,0,0,0,0,0,0,0,0,0,0,0,0,0,0,0.386,0,0.385,0.385,0.384,0.384,0.384,0.384,0.384,0.384,0.384,0.384,0.384,0.384,0.383,0.383,0.382,0.382,0.382,0.381,0.38,0,0,0,0,0.374,0.373,0.372,0.371,0.37,0.369,0.368,0.367,0.367,0.366,0.366,0.366,0.366,0,0,0.366,0.366,0.366,0.366,0.365,0.365,0.366,0.365,0.365,0.365,0.365,0.365,0.365,0.364,0.364,0.364,0.364,0.364,0.364,0.364,0.364,0.363,0.363,0.363,0.363,0.363,0.363,0.363,0.363,0.363,0.363,0.363,0.363,0.363,0.363,0.363,0.364,0.364,0.365,0.365,0.366,0.366,0.366,0.366,0.367,0.367,0.367,0.366,0.366,0.366,0.366,0.366,0.366,0.366,0.365,0.365,0.365,0,0,0,0.575,0.575,0.577,0.578,0.58,0.581,0.583,0.586,0.588,0.59,0.591,0.592,0.594,0.595,0.597,0.597,0.597,0.598,0.598,0.598,0.598,0.598,0.598,0.598,0.598,0.599,0.6,0.601,0.602,0.603,0.604,0.604,0.604,0.604,0.604,0.603,0.604,0.604,0.604,0.604,0.603,0.604,0.604,0.604,0.604,0.604,0.604,0.604,0.604,0.605,0.607,0.607,0.608,0.609,0.61,0.61,0.611,0.611,0.61,0.609,0.608,0.605,0.604,0.602,0.6,0.597,0.596,0.593,0.59,0.588,0.586,0.585,0.583,0.583,0.581,0.58,0.58,0.58,0.579,0.579,0.578,0.578,0.578,0.577,0.577,0.576,0.575,0.574,0.573,0.572,0.571,0.569,0.567,0.566,0.565,0.563,0.562,0.56,0.559,0.558,0.557,0.556,0,0,0,0,0,0,0,0,0,0,0,0,0,0,0,0.612,0.609,0.605,0.603,0.6,0.598,0.596,0.594,0.593,0.593,0.593,0.593,0.593,0.594,0.594,0.595,0.596,0.596,0.596,0.597,0.597,0.597,0.597,0.597,0.597,0.597,0.597,0.597,0.597,0.597,0.597,0.597,0.597,0.597,0.597,0.597,0.597,0.597,0.597,0.598,0.598,0.598,0.599,0.598,0.6,0.6,0.598,0.597,0.596,0.594,0.593,0.591,0.59,0.586,0.584,0,0,0,0,0,0,0,0,0,0,0,0,0,0,0,0,0,0,0,0,0,0,0,0,0,0.6,0.601,0.602,0.603,0.605,0.608,0.611,0.613,0,0,0,0,0,0,0,0,0,0,0,0,0,0,0,0,0,0,0,0,0,0,0,0,0,0,0,0,0,0,0,0,0,0,0,0,0,0,0,0,0,0,0,0,0,0,0,0,0
0,0,0,0,0,2.604,2.593,2.55,2.529,2.529,2.508,2.508,2.508,2.508,2.508,0,0,0,0,0,0,0,0,0,0,0,0,0,0,0,0,0,0,0,0,0,0,0,0,0,0,0,0.603,0.602,0.603,0.603,0.603,0.603,0.603,0.603,0.604,0.605,0.607,0.607,0.608,0.609,0.61,0.611,0.612,0.612,0.613,0.613,0.615,0.615,0.616,0.616,0.617,0.618,0.619,0.62,0.621,0.623,0.623,0.625,0.626,0.627,0.628,0.63,0.631,0.633,0.635,0.636,0.638,0.64,0.642,0.644,0.646,0.647,0.648,0.65,0.651,0.652,0.653,0.654,0.655,0.656,0.657,0.658,0.659,0.659,0.66,0.662,0.662,0.664,0.665,0.667,0.667,0.668,0.669,0.669,0.669,0.669,0.669,0.669,0.669,0.669,0.67,0.67,0.669,0.669,0.669,0.668,0.667,0.667,0.666,0.665,0.664,0.664,0.663,0.662,0,0,0,0,0,0,0,0,0,0,0,0,0,0.74,0,0,0,0,0,0,0,0.707,0.702,0.698,0.698,0.698,0.697,0.697,0.697,0.698,0.7,0.702,0.702,0.703,0.705,0.705,0.706,0.706,0.706,0.708,0.709,0.71,0.708,0.705,0.702,0,0.698,0,0,0,0,0.68,0.678,0.675,0.672,0.669,0.667,0.665,0.664,0.663,0.662,0.661,0.661,0.661,0.662,0.662,0.662,0.663,0.664,0.666,0.668,0,0,0,0,0,0,0,0,0,0,0,0,0,0,0,0,0.648,0.65,0.651,0.654,0.656,0.656,0.657,0.658,0.659,0.659,0.66,0.66,0.66,0.66,0.66,0.66,0.66,0.659,0.657,0.657,0.656,0.654,0.653,0.652,0.65,0.649,0.648,0.648,0.648,0.646,0.647,0.647,0.648,0.648,0.649,0,0,0,0,0,0,0,0,0,0,0,0,0,0,0,0,0,0,0,0,0,0,0,0,0.385,0,0.385,0.384,0.384,0.384,0.383,0.383,0.383,0.383,0.383,0.383,0.383,0.383,0.382,0.381,0.381,0.38,0.38,0.38,0.379,0.378,0,0,0,0,0.372,0.371,0.369,0.368,0.367,0.367,0.366,0.365,0.365,0.364,0.364,0.364,0.364,0,0.364,0.364,0.364,0.364,0.364,0.363,0.363,0.363,0.363,0.363,0,0,0.362,0.362,0.362,0.362,0.362,0.362,0.362,0.362,0.362,0.362,0.362,0.362,0.362,0.362,0.362,0.362,0.362,0.362,0.362,0.362,0.362,0.362,0.362,0.362,0.362,0.362,0.363,0.364,0.364,0.365,0.365,0.365,0.365,0.366,0.366,0.366,0.366,0.366,0.366,0.366,0.366,0.366,0.366,0.366,0.365,0.365,0.365,0.366,0,0,0,0.578,0.579,0.58,0.582,0.585,0.588,0.589,0.591,0.593,0.594,0.595,0.596,0.598,0.598,0.598,0.598,0.598,0.598,0.598,0.598,0.598,0.598,0.598,0.598,0.6,0.6,0.6,0.601,0.601,0.6,0.6,0.6,0.599,0.599,0.598,0.598,0.598,0.598,0.598,0.598,0.598,0.598,0.599,0.599,0.598,0.598,0.599,0.6,0.601,0.602,0.603,0.604,0.605,0.606,0.606,0.606,0.605,0.604,0.602,0.6,0.598,0.597,0.594,0.593,0.591,0.589,0.587,0.585,0.584,0.583,0.581,0.58,0.58,0.579,0.578,0.578,0.577,0.577,0.576,0.575,0.575,0.574,0.574,0.573,0.573,0.572,0.571,0.57,0.569,0.567,0.566,0.564,0.563,0.562,0.561,0.56,0.559,0.557,0.556,0.556,0.555,0.554,0,0,0,0,0,0,0,0,0,0,0,0,0,0,0,0,0.6,0.597,0.596,0.593,0.592,0.591,0.591,0.59,0.59,0.59,0.591,0.591,0.591,0.591,0.592,0.592,0.593,0.593,0.593,0.593,0.592,0.592,0.592,0.592,0.592,0.591,0.591,0.591,0.592,0.593,0.593,0.593,0.594,0.594,0.594,0.594,0.595,0.595,0.596,0.595,0.595,0.595,0.594,0.593,0.591,0.59,0.589,0,0,0,0,0,0,0,0,0,0,0,0,0,0,0,0,0,0,0,0,0,0,0,0,0,0,0,0,0,0.594,0.595,0.597,0.598,0,0,0.607,0.609,0,0,0,0,0,0,0,0,0,0,0,0,0,0,0,1.094,0,0,0,0,0,0,0,0,0,0,0,0,0,0,0,0,0,0,0,0,0,0,0,0,0,0,0,0,0,0,0,0,0,0
0,0,0,0,0,2.593,2.582,2.55,2.529,2.519,2.508,2.519,2.508,2.508,2.508,0,0,0,0,0,0,0,0,0,0,0,0,0,0,0,0,0,0,0,0,0,0,0,0,0,0,0.605,0.604,0.604,0.603,0.603,0.603,0.603,0.603,0.604,0.604,0.605,0.607,0.608,0.609,0.61,0.611,0.612,0.613,0.613,0.614,0.615,0.616,0.616,0.618,0.618,0.619,0.62,0.621,0.622,0.623,0.624,0.625,0.626,0.627,0.628,0.629,0.63,0.632,0.633,0.634,0.635,0.636,0.638,0.639,0.64,0.642,0.643,0.644,0.645,0.646,0.647,0.648,0.65,0.65,0.651,0.652,0.653,0.654,0.654,0.656,0.657,0.658,0.659,0.66,0.661,0.662,0.663,0.664,0.664,0.664,0.664,0.664,0.664,0.665,0.665,0.665,0.665,0.665,0.665,0.665,0.665,0.664,0.664,0.663,0.663,0.662,0.662,0.661,0.66,0.66,0.659,0.658,0,0,0,0,0,0,0,0,0,0,0,0,0,0,0,0,0,0,0.687,0.684,0,0.684,0.685,0.687,0.688,0.691,0.693,0.695,0.698,0.7,0.701,0.702,0.703,0.702,0.703,0.704,0.705,0.706,0.706,0.702,0.698,0.694,0,0,0,0.684,0.679,0.675,0.673,0.671,0.668,0.666,0.664,0.662,0.662,0.66,0.659,0.659,0.659,0.659,0.659,0.659,0.66,0.661,0.662,0.663,0.664,0,0,0,0,0,0,0,0,0,0,0,0,0,0,0,0,0.645,0.646,0.648,0.65,0.651,0.652,0.653,0.654,0,0.656,0.657,0.658,0.658,0.658,0.659,0.659,0.659,0.659,0.658,0.657,0.656,0.654,0.653,0.651,0.65,0.648,0.647,0.646,0.644,0.645,0.644,0.644,0.644,0.645,0.646,0,0,0,0,0,0,0,0,0,0,0,0,0,0,0,0,0,0,0,0,0,0,0,0,0,0.384,0.384,0,0.384,0.383,0.383,0.382,0.382,0.382,0.381,0.381,0.381,0.381,0.381,0.38,0.379,0.378,0.378,0.377,0.377,0.376,0.375,0,0,0,0.371,0.37,0.368,0.368,0.367,0.366,0.365,0.364,0.364,0.363,0.363,0.363,0.363,0.363,0.363,0.363,0.363,0.362,0.362,0.362,0.362,0.362,0.362,0.361,0.361,0,0,0.36,0.36,0.36,0.36,0.36,0.36,0.36,0.36,0.361,0.361,0.361,0.361,0.36,0.36,0.361,0.361,0.361,0.36,0.36,0.36,0.361,0.361,0.36,0.36,0.361,0.361,0.362,0.362,0.363,0.363,0.364,0.364,0.365,0.365,0.365,0.365,0.365,0.365,0.365,0.365,0.365,0.365,0.365,0.365,0.365,0.366,0.366,0.366,0.366,0.366,0.367,0,0.579,0.58,0,0.585,0.588,0.591,0.593,0.594,0.594,0.596,0.597,0.599,0.6,0.6,0.6,0.6,0.599,0.599,0.598,0.598,0.598,0.598,0.598,0.598,0.598,0.598,0.598,0.598,0.597,0.597,0.596,0.595,0.594,0.594,0.594,0.593,0.594,0.594,0.594,0.594,0.594,0.594,0.593,0.593,0.593,0.593,0.594,0.594,0.595,0.596,0.597,0.597,0.598,0.598,0.598,0.597,0.596,0.595,0.594,0.592,0.591,0.589,0.588,0.586,0.585,0.584,0.583,0.581,0.58,0.579,0.579,0.578,0.577,0.576,0.576,0.575,0.574,0.574,0.573,0.572,0.572,0.571,0.571,0.57,0.57,0.569,0.567,0.566,0.566,0.564,0.563,0.562,0.561,0.56,0.559,0.558,0.557,0.557,0.555,0.554,0.553,0.552,0,0,0,0,0,0,0,0,0,0,0,0,0,0,0,0,0.594,0.591,0.59,0.589,0.588,0.587,0.586,0.587,0.588,0.588,0.588,0.588,0.588,0.588,0.588,0.589,0.589,0.589,0.588,0.588,0.588,0.588,0.588,0.588,0.587,0.587,0.588,0.588,0.589,0.59,0.59,0.59,0.59,0.591,0.591,0.592,0.592,0.592,0.591,0.591,0.59,0.59,0.589,0.587,0.586,0.584,0.583,0.581,0.579,0.577,0.577,0,0,0,0,0,0,0,0,0,0,0,0,0,0,0,0,0,0,0,0,0,0,0,0.588,0.589,0.59,0.593,0,0,0.6,0.604,0,0,0,0,0,0,0,0,0,0,0,0,0,0,1.109,1.109,1.109,0,0,0,0,0,0,1.175,1.184,1.189,1.193,0,0,0,0,0,0,0,0,0,0,0,0,0,0,0,0,0,0,0,0,0,0,0,0
0,0,0,0,2.858,2.593,2.55,2.54,2.529,2.519,2.508,2.508,2.519,2.508,2.519,0,0,0,0,0,0,0,0,0,0,0,0,0,0,0,0,0,0,0,0,0,0,0,0,0,0,0.606,0.605,0.605,0.604,0.604,0.604,0.604,0.604,0.605,0.605,0.606,0.608,0.609,0.61,0.611,0.612,0.613,0.613,0.614,0.615,0.616,0.616,0.618,0.618,0.62,0.62,0.621,0.623,0.623,0.625,0.625,0.626,0.627,0.628,0.629,0.63,0.63,0.632,0.632,0.633,0.634,0.634,0.635,0.636,0.637,0.638,0.639,0.64,0.641,0.642,0.643,0.644,0.646,0.647,0.648,0.649,0.65,0.65,0.651,0.652,0.652,0.654,0.654,0.656,0.657,0.658,0.659,0.659,0.659,0.66,0.661,0.661,0.662,0.662,0.662,0.662,0.662,0.662,0.662,0.662,0.662,0.661,0.662,0.661,0.661,0,0.66,0.659,0.659,0.659,0.658,0.657,0.656,0.654,0,0.652,0.65,0,0,0,0,0,0,0,0,0,0,0,0.657,0.671,0.671,0.671,0.671,0.674,0.677,0.679,0.682,0.684,0.688,0.692,0.696,0.698,0.699,0.701,0.702,0.702,0,0,0,0,0,0,0,0,0,0,0.682,0.678,0.672,0.67,0,0.666,0.664,0.662,0.661,0.66,0.659,0.658,0.657,0.657,0.658,0.657,0.657,0.659,0.659,0.661,0.661,0,0,0,0,0,0,0,0,0,0,0,0,0,0,0,0,0,0.642,0.642,0.641,0.642,0.642,0.643,0.644,0.646,0.646,0,0.65,0.652,0.654,0.655,0.657,0.658,0.659,0.659,0.659,0.658,0.657,0.655,0.654,0.652,0.65,0.648,0.647,0.646,0.644,0.644,0.643,0.643,0.644,0.644,0.644,0.646,0,0,0,0,0,0,0,0,0,0,0,0,0,0,0,0,0,0,0,0,0,0,0,0,0.384,0.383,0.383,0.383,0.383,0.382,0.382,0.381,0.381,0.381,0.38,0.38,0.38,0.379,0,0.378,0,0,0,0.375,0.374,0.374,0.373,0.372,0.37,0.369,0.368,0.367,0.366,0.366,0.365,0.365,0.364,0.363,0.363,0.362,0.362,0.362,0.361,0.361,0.361,0.361,0.361,0.361,0.36,0.36,0.36,0.36,0.359,0.359,0.359,0.358,0.358,0.358,0.358,0.358,0.358,0.358,0.359,0.359,0.359,0.359,0.359,0.359,0.359,0.359,0.359,0.359,0.359,0.36,0.359,0.359,0.359,0.359,0.36,0.359,0.359,0.359,0.36,0.36,0.361,0.361,0.362,0.362,0.362,0.363,0.363,0.364,0.364,0.364,0.364,0.364,0.365,0.365,0.365,0.365,0.365,0.365,0.366,0.366,0.366,0.366,0.366,0.367,0.367,0,0,0,0,0.589,0.591,0.594,0.596,0.596,0.597,0.599,0.6,0.6,0.6,0.6,0.6,0.6,0.599,0.598,0.598,0.597,0.597,0.597,0.597,0.597,0.597,0.596,0.595,0.594,0.593,0.591,0.591,0.59,0.59,0.589,0.589,0.589,0.589,0.59,0.59,0.589,0.588,0.588,0.588,0.587,0.587,0.587,0.588,0.589,0.589,0.59,0.59,0.591,0.591,0.591,0.59,0.59,0.589,0.588,0.586,0.586,0.584,0.584,0.583,0.581,0.581,0.58,0.579,0.578,0.577,0.577,0.576,0.575,0.574,0.574,0.573,0.573,0.572,0.571,0.57,0.57,0.569,0.569,0.568,0.567,0.566,0.565,0.564,0.563,0.562,0.561,0.56,0.56,0.559,0.558,0.558,0.557,0.556,0.555,0.554,0.553,0.551,0.55,0.549,0,0,0,0,0,0,0,0,0,0,0,0,0,0,0,0.588,0.586,0.585,0.585,0.584,0.584,0.584,0.584,0.584,0.585,0.585,0.585,0.585,0.585,0.585,0.585,0.585,0.584,0.584,0.583,0.583,0.583,0.583,0.583,0.583,0.583,0.584,0.585,0.586,0.586,0.588,0.588,0.589,0.589,0.589,0.589,0.589,0.589,0.588,0.587,0.586,0.585,0.584,0.582,0.581,0.58,0.578,0.577,0.575,0.574,0,0,0,0,0,0,0,0,0,0,0,0,0,0,0,0,0,0,0,0,0,0,0.58,0.58,0.581,0.584,0,0,0.591,0.596,0.6,0.604,0,0,0,0,0,0,0,0,0,0,0,0,1.117,1.119,1.117,1.119,0,1.136,1.149,1.157,0,1.168,1.175,1.184,1.189,1.193,1.196,0,0,0,0,0,0,0,0,0,0,1.957,1.995,2.028,0,0,0,0,0,0,0,0,0,0
0,0,0,0,0,0,2.55,2.54,2.519,2.508,2.508,2.508,2.508,2.519,2.519,0,0,0,0,0,0,0,0,0,0,0,0,0,0,0,0,0,0,0,0,0,0,0,0,0,0,0.607,0.607,0.605,0.605,0.605,0.604,0.604,0.605,0.605,0.606,0.607,0.608,0.609,0.611,0.612,0.612,0.613,0.614,0.615,0.616,0.616,0.617,0.618,0.62,0.62,0.621,0.622,0.623,0.625,0.625,0.626,0.626,0.628,0.628,0.629,0.63,0.63,0.631,0.632,0.632,0.632,0.632,0.633,0.633,0.634,0.634,0.634,0.636,0.637,0.638,0.639,0.64,0.64,0.642,0.643,0.644,0.645,0.646,0.646,0.648,0.648,0.649,0.65,0.652,0.652,0.653,0.654,0.656,0.657,0.657,0.657,0.658,0.658,0.658,0.658,0.659,0.659,0.659,0.659,0.659,0.66,0.659,0.659,0.659,0.659,0.659,0.659,0.658,0.657,0.657,0.657,0.654,0.653,0.65,0.648,0,0.644,0.641,0.64,0,0,0,0,0,0,0,0,0,0.639,0.642,0.649,0.651,0,0.656,0.66,0.665,0.669,0.672,0.678,0,0,0,0,0,0,0,0,0,0,0,0,0,0,0,0,0.679,0.675,0.672,0.667,0,0,0.662,0.661,0.659,0.658,0.657,0.657,0.656,0.656,0.656,0.657,0.656,0.657,0.658,0,0,0,0,0,0,0,0,0,0,0,0.483,0.483,0,0,0,0,0,0,0,0.634,0.634,0.633,0.634,0.633,0.632,0.634,0.636,0.636,0.638,0.641,0.644,0.646,0.648,0.651,0.653,0.654,0.656,0.657,0.657,0.654,0.652,0.651,0.649,0.648,0.646,0.644,0.643,0.642,0.642,0.641,0.641,0.642,0.642,0,0,0,0,0,0,0,0,0,0,0,0,0,0,0,0,0,0,0,0,0,0,0,0,0,0,0.383,0.383,0.382,0.382,0.382,0.381,0.381,0.38,0.38,0.379,0.379,0.378,0.377,0.377,0.377,0.376,0,0.374,0.373,0.372,0.372,0.371,0.37,0.369,0.368,0.367,0.366,0.365,0.365,0.364,0.363,0.363,0.362,0.362,0.362,0.361,0.361,0.361,0.36,0.36,0.36,0.36,0.36,0.359,0.359,0.359,0.358,0.358,0.358,0.357,0.357,0.356,0.356,0.356,0.356,0.356,0.356,0.356,0.357,0.357,0.357,0.357,0.358,0.358,0.358,0.358,0.358,0.358,0.358,0.358,0.358,0.358,0.358,0.358,0.358,0.358,0.358,0.358,0.358,0.359,0.36,0.36,0.36,0.361,0.361,0.362,0.362,0.362,0.362,0.362,0.362,0.363,0.363,0.363,0.364,0.364,0.364,0.365,0.365,0.366,0.366,0.366,0.366,0.366,0.367,0.368,0.369,0,0,0,0.593,0.594,0.596,0.597,0.598,0.599,0.599,0.6,0.6,0.6,0.6,0.599,0.599,0.598,0.597,0.596,0.596,0.595,0.594,0.594,0.593,0.591,0.59,0.589,0.588,0.587,0.586,0.585,0.585,0.585,0.585,0.584,0.585,0.584,0.584,0.584,0.583,0.583,0.581,0.581,0.581,0.581,0.581,0.581,0.583,0.583,0.583,0.584,0.584,0.584,0.584,0.583,0.582,0.581,0.581,0.581,0.58,0.58,0.579,0.578,0.578,0.577,0.577,0.576,0.575,0.575,0.574,0.574,0.573,0.573,0.572,0.571,0.571,0.569,0.569,0.567,0.567,0.566,0.566,0.565,0.565,0.564,0.563,0.562,0.561,0.56,0.559,0.558,0.557,0.557,0.556,0.555,0.555,0.554,0.553,0.552,0.551,0.55,0.548,0.548,0.547,0.547,0,0,0,0,0,0,0,0,0,0,0,0,0,0.583,0.581,0.581,0.581,0.581,0.581,0.581,0.581,0.582,0.582,0.582,0.582,0.582,0.582,0.581,0.581,0.58,0.58,0.579,0.579,0.578,0.578,0.578,0.578,0.578,0.579,0.58,0.581,0.583,0.584,0.584,0.585,0.586,0.586,0.586,0.586,0.585,0.584,0.584,0.583,0.581,0.58,0.579,0.578,0.577,0.575,0.574,0.573,0.573,0.572,0.571,0.571,0,0,0,0,0,0,0,0,0,0,0,0,0,0,0,0,0,0,0,0.576,0.576,0.577,0.579,0,0,0,0,0,0,0,0,0,0,0,0,0,0,0,0,1.119,1.121,1.124,0,1.126,1.128,0,1.142,1.153,1.16,1.166,1.171,1.175,1.184,1.189,1.193,1.196,1.2,0,0,0,0,0,0,0,0,1.915,1.976,2.015,2.055,2.083,0,0,0,0,0,0,0,0,0
0,0,0,0,0,0,0,2.55,2.519,2.519,2.508,2.508,2.508,2.519,0,0,0,0,0,0,0,0,0,0,0,0,0,0,0,0,0,0,0,0,0,0,0,0,0,0,0.61,0.608,0.607,0.606,0.605,0.605,0.605,0.605,0.605,0.605,0.606,0.607,0.608,0.61,0.611,0.612,0.613,0.613,0.615,0.615,0.616,0.616,0.618,0.618,0.62,0.62,0.621,0.622,0.623,0.625,0.625,0.626,0.626,0.627,0.628,0.628,0.629,0.63,0.63,0.63,0.63,0.63,0.63,0.63,0.63,0.63,0.63,0.63,0.632,0.632,0.633,0.634,0.635,0.636,0.637,0.638,0.639,0.64,0.641,0.642,0.644,0.644,0.645,0.646,0.647,0.648,0.65,0.65,0.652,0.652,0.653,0.653,0.653,0.654,0.654,0.654,0.654,0.654,0.655,0.656,0.656,0.657,0.657,0.657,0.657,0.657,0.657,0.657,0.657,0.657,0.657,0.656,0.654,0.651,0.648,0.645,0.643,0.639,0.634,0.631,0,0,0,0,0,0,0,0,0,0,0.634,0.636,0.638,0.64,0.644,0.646,0.648,0.65,0.654,0.656,0,0,0,0,0,0,0,0,0,0,0,0,0,0,0,0,0.67,0.667,0.665,0.662,0,0.662,0.66,0.659,0.658,0.657,0.657,0.656,0.655,0.654,0.654,0.655,0.656,0,0,0,0,0,0,0,0,0,0,0,0.481,0.482,0.483,0.483,0.484,0.484,0,0,0,0,0,0.625,0.624,0.624,0.624,0.624,0.623,0.624,0.626,0.626,0.628,0.631,0.634,0.637,0.64,0.642,0.645,0,0,0,0,0,0,0,0,0.645,0.643,0.642,0.64,0.64,0.639,0,0,0.64,0,0,0,0,0,0,0,0,0,0,0,0,0,0,0,0,0,0,0,0,0,0,0,0,0.383,0.383,0.383,0.382,0.382,0.381,0.381,0.381,0.38,0.379,0.379,0.378,0.378,0.377,0.377,0.376,0.375,0.374,0.373,0.372,0.371,0.371,0.37,0.369,0.369,0.369,0.368,0.367,0.366,0.365,0.364,0.363,0.363,0.363,0.362,0.362,0.361,0.361,0.361,0.36,0.36,0.36,0.359,0.359,0.359,0.359,0.358,0.358,0.358,0.357,0.357,0.356,0.356,0.355,0.355,0.355,0.355,0.355,0.355,0.355,0.355,0.355,0.355,0.355,0.356,0.356,0.356,0.356,0.356,0.356,0.357,0.356,0.356,0.356,0.356,0.356,0.356,0.356,0.356,0.356,0.356,0.357,0.358,0.358,0.359,0.359,0.359,0.36,0.36,0.36,0.361,0.361,0,0,0.361,0.362,0.362,0.363,0.363,0.364,0.364,0.365,0.365,0.365,0.366,0.366,0.366,0.366,0.367,0.368,0.368,0,0,0,0.596,0.597,0.597,0.598,0.599,0.599,0.599,0.599,0.598,0.598,0.597,0.596,0.595,0.594,0.593,0.592,0.59,0.59,0.589,0.589,0.587,0.586,0.585,0.584,0.583,0.582,0.581,0.581,0.58,0.58,0.58,0.58,0.579,0.579,0.578,0.578,0.577,0.576,0.576,0.576,0.576,0.576,0.577,0.577,0.577,0.577,0.577,0.577,0.577,0.576,0.576,0.575,0.575,0.575,0.575,0.574,0.575,0.575,0.574,0.574,0.574,0.574,0.574,0.573,0.573,0.573,0.572,0.571,0.571,0.57,0.569,0.568,0.566,0.565,0.564,0.564,0.563,0.563,0.562,0.562,0.561,0.56,0.559,0.558,0.558,0.557,0.556,0.556,0.555,0.555,0.554,0.554,0.553,0.552,0.551,0.551,0.549,0.548,0.547,0.546,0.546,0.545,0.545,0.544,0,0,0,0,0,0,0,0,0,0,0,0.577,0.577,0.577,0.577,0.577,0.578,0.578,0.578,0.579,0.579,0.579,0.579,0.578,0.578,0.577,0.576,0.575,0.575,0.574,0.573,0.573,0.572,0.573,0.573,0.573,0.574,0.575,0.577,0.578,0.58,0.581,0.583,0.583,0.584,0.583,0.582,0.581,0.58,0.579,0.578,0.577,0.575,0.574,0.573,0.572,0.571,0.57,0.57,0.569,0.569,0.568,0,0,0,0,0,0,0,0,0,0,0,0,0,0,0,0,0,0,0.574,0.574,0.575,0.575,0.577,0.578,0.58,0.584,0,0,0,0,0,0,0,0,0,0,0,0,0,1.126,1.126,1.13,1.132,0,1.134,0,0,1.157,1.166,1.171,1.175,1.18,1.186,1.193,1.196,1.198,1.2,1.205,0,0,0,0,0,0,0,1.921,1.995,2.049,2.083,2.127,2.156,0,0,0,0,0,0,0,0
